ply
format ascii 1.0
comment PCL generated
element vertex 1106
property float x
property float y
property float z
property uchar red
property uchar green
property uchar blue
element camera 0
property float view_px
property float view_py
property float view_pz
property float x_axisx
property float x_axisy
property float x_axisz
property float y_axisx
property float y_axisy
property float y_axisz
property float z_axisx
property float z_axisy
property float z_axisz
property float focal
property float scalex
property float scaley
property float centerx
property float centery
property int viewportx
property int viewporty
property float k1
property float k2
end_header
0.80408579 -0.21338572 0.010823766 45 22 58
0.76702213 -0.18753619 0.013343981 45 22 58
0.78632921 -0.18735063 0.013470296 45 22 58
0.80229521 -0.19028431 0.010720463 45 22 58
0.76439029 -0.16319749 0.013703191 45 22 58
0.78468549 -0.16339938 0.014594879 45 22 58
0.80268371 -0.16684385 0.0075867772 45 22 58
0.76212174 -0.13926448 0.015448206 45 22 58
0.78193551 -0.14183331 0.017377362 45 22 58
0.68546236 -0.10486276 0.0036206618 255 0 0
0.75884229 -0.11372091 0.014692505 45 22 58
0.77620816 -0.12361387 0.020396829 45 22 58
0.66525531 -0.080774963 0.0060105757 45 22 58
0.67902732 -0.08653935 0.0074665905 255 0 0
0.74984121 -0.07602556 0.024073079 255 0 0
0.75315917 -0.087345563 0.019636659 255 0 0
0.64794099 -0.058115363 0.0054726913 45 22 58
0.66528475 -0.061921138 0.0084312884 45 22 58
0.67795575 -0.065236241 0.019344678 255 0 0
0.74853396 -0.062813468 0.022917459 255 0 0
0.64512879 -0.036952805 0.0092116492 45 22 58
0.66190797 -0.037876721 0.011561912 45 22 58
0.74775016 -0.046022441 0.024198815 255 0 0
0.64280254 -0.012037605 0.01125267 45 22 58
0.65961921 -0.012346602 0.011876329 45 22 58
0.64251494 0.013838505 0.010892444 45 22 58
0.65802282 0.011510459 0.011681482 45 22 58
0.67535579 0.015340477 0.0090590119 255 0 0
0.644279 0.03838373 0.0079313451 45 22 58
0.65744668 0.037080266 0.010161711 255 0 0
0.73729324 0.048852935 0.024426375 255 0 0
0.76999319 0.037615776 0.023754034 45 22 58
0.64644277 0.062648937 0.0042761243 45 22 58
0.65779012 0.06080002 0.008997133 255 0 0
0.73680425 0.065734245 0.022556152 45 22 58
0.76691705 0.061587434 0.015524749 45 22 58
0.65782565 0.080983967 0.0049849101 255 0 0
0.736431 0.089340314 0.019604599 45 22 58
0.75971681 0.089282587 0.014902085 45 22 58
0.66453081 0.10319147 0.0061279833 255 0 0
0.73945171 0.11240716 0.015103837 45 22 58
0.75896263 0.11303193 0.013603822 45 22 58
0.73999274 0.13817886 0.014379513 45 22 58
0.75699377 0.13792562 0.01100318 45 22 58
1.4668148 0.14490095 0.0059742406 255 0 0
0.74020904 0.16324703 0.014408665 45 22 58
0.75484687 0.1625444 0.0084945131 45 22 58
1.4607586 0.15757096 0.0097928941 255 0 0
0.72255343 0.18811521 0.024787348 45 22 58
0.7392891 0.18779862 0.013225218 45 22 58
0.75481898 0.18794757 0.0076743928 45 22 58
0.69368857 0.21945536 0.019524481 45 22 58
0.71402019 0.21684478 0.013271216 45 22 58
0.73870075 0.21225126 0.012549831 45 22 58
0.75171381 0.20544718 0.0074363928 45 22 58
0.69780028 0.23122378 0.02118348 45 22 58
0.71673757 0.23591739 0.013571904 45 22 58
0.73609263 0.23640622 0.010892856 45 22 58
0.75291979 0.23771468 0.0048084557 45 22 58
0.71588057 0.26392218 0.013383941 45 22 58
0.73273063 0.26202962 0.012082388 45 22 58
0.71429104 0.28843895 0.013912578 45 22 58
0.72784621 0.28507119 0.0092332764 45 22 58
0.69788164 0.3140609 0.022279469 45 22 58
0.71350503 0.31242892 0.012967161 45 22 58
0.72616321 0.30983123 0.0045961663 45 22 58
0.69810575 0.33897555 0.022239991 45 22 58
0.71200359 0.33635691 0.01260279 45 22 58
0.72589302 0.32917258 0.0020437341 45 22 58
0.84435201 0.34286177 0.0013109148 255 0 0
0.8554613 0.34218857 0.015556896 255 0 0
0.69709724 0.35465306 0.022975167 45 22 58
0.7126379 0.3622601 0.013123007 45 22 58
0.72682655 0.36681101 0.0089335395 45 22 58
0.84039927 0.36431786 0.0054689171 255 0 0
0.8697986 0.36030966 0.019729167 255 0 0
0.69829053 0.39452648 0.018089708 45 22 58
0.71274734 0.38741577 0.013404476 45 22 58
0.72608936 0.38513839 0.0042211218 45 22 58
0.85848898 0.38670626 0.0071555674 255 0 0
0.64537191 0.40764171 0.0023709014 255 0 0
0.65675402 0.40541077 0.003262721 255 0 0
0.69609672 0.41368312 0.013665044 45 22 58
0.71095669 0.41222438 0.012569324 45 22 58
0.72501189 0.40633166 0.0031445175 45 22 58
0.69742751 0.43869376 0.016857564 45 22 58
0.7093941 0.43636337 0.011756101 45 22 58
0.69560581 0.46216452 0.011845716 45 22 58
0.70752352 0.46223685 0.011734577 255 0 0
0.73589349 0.46901998 0.0092845876 255 0 0
0.69305307 0.48828819 0.012625288 45 22 58
0.70558584 0.48726276 0.010972607 45 22 58
0.73276269 0.48759511 0.0091361934 255 0 0
0.68949163 0.51332676 0.012003049 45 22 58
0.70403498 0.51011407 0.0092220288 45 22 58
0.72987217 0.51253664 0.0069531305 45 22 58
0.77681309 0.51237679 0.024242841 255 0 0
0.68643206 0.5373522 0.011969346 45 22 58
0.70582086 0.53738284 0.0073186872 45 22 58
0.7267158 0.53526884 0.0093593001 45 22 58
0.67359626 0.56772035 0.017133214 45 22 58
0.68620437 0.56197053 0.0096574659 45 22 58
0.71438813 0.56135458 0.0079311412 45 22 58
0.76804364 0.56547207 0.023852814 45 22 58
0.67230427 0.58877593 0.0130226 45 22 58
0.68737209 0.58551198 0.0068650506 45 22 58
0.71693653 0.587331 0.0062962733 45 22 58
0.73479617 0.58859318 0.022563085 45 22 58
0.76664054 0.58848929 0.021390818 45 22 58
0.66815835 0.61201173 0.010256558 45 22 58
0.68708706 0.61151463 0.0046822759 45 22 58
0.71414739 0.61072773 0.003995541 255 0 0
0.73308843 0.61459583 0.022022748 45 22 58
0.76314485 0.61222541 0.021612069 45 22 58
0.66580015 0.63807577 0.0080401227 45 22 58
0.68343246 0.63688797 0.0048155114 45 22 58
0.71315747 0.63818097 0.0090861386 255 0 0
0.73169833 0.63750935 0.020142179 45 22 58
0.76005876 0.63412839 0.020863518 45 22 58
0.66359991 0.66037232 0.0068580681 45 22 58
0.68364167 0.65759766 0.0024044663 45 22 58
0.71437943 0.66225141 0.014752713 255 0 0
0.73126191 0.66239142 0.018128708 45 22 58
0.75502372 0.66367191 0.02109809 45 22 58
0.66042149 0.68616402 0.0050597955 45 22 58
0.68556535 0.68454403 0.00087858737 45 22 58
0.71204007 0.68908823 0.015086963 45 22 58
0.72912151 0.68758821 0.017443134 45 22 58
0.75107521 0.68906295 0.018936537 45 22 58
0.65459448 0.70982713 0.0030726029 45 22 58
0.69896948 0.71625328 0.018222002 45 22 58
0.71467525 0.71329492 0.015692649 45 22 58
0.73686826 0.71177077 0.016779279 45 22 58
0.64917666 0.73685372 0.0039669098 45 22 58
0.65132684 0.73625439 0.0028850883 45 22 58
0.69752049 0.73810953 0.014254453 45 22 58
0.71458679 0.73882914 0.015301298 45 22 58
0.7359637 0.73590231 0.015414532 45 22 58
0.64791971 0.75941503 0.002688013 45 22 58
0.69324833 0.76303285 0.016939146 45 22 58
0.71253139 0.76299369 0.01399985 45 22 58
0.7395761 0.76151639 0.017817454 45 22 58
0.64379299 0.78316057 0.0020635277 45 22 58
0.69312751 0.78837317 0.016004929 45 22 58
0.71132094 0.78727001 0.012975218 45 22 58
0.73628777 0.78425241 0.017548267 45 22 58
0.69190669 0.81294006 0.015652739 45 22 58
0.71150708 0.8126598 0.012283904 45 22 58
0.73346752 0.81200683 0.014674547 45 22 58
0.68749607 0.83768034 0.014975953 45 22 58
0.708525 0.83774137 0.012657213 45 22 58
0.73052919 0.83802551 0.016933626 45 22 58
0.67415476 0.86815119 0.02050307 45 22 58
0.68509263 0.86286581 0.013633603 45 22 58
0.7053141 0.8613432 0.010828427 45 22 58
0.72789884 0.86441433 0.013604592 45 22 58
0.67200541 0.88984078 0.016956165 45 22 58
0.68518108 0.88731617 0.01237526 45 22 58
0.71252912 0.88910884 0.011647906 45 22 58
0.72650826 0.88188493 0.012775408 45 22 58
0.67027152 0.91380084 0.014359485 45 22 58
0.68392628 0.91211307 0.013144202 45 22 58
0.71513802 0.91353256 0.010428282 45 22 58
0.66698301 0.93879133 0.014844056 45 22 58
0.6842854 0.93683237 0.011346045 45 22 58
0.71512926 0.93829691 0.012826961 45 22 58
0.66449779 0.9634341 0.013235234 45 22 58
0.68742859 0.96104848 0.010917923 45 22 58
0.71612167 0.96347696 0.011338281 45 22 58
0.64961928 0.9784925 0.024633393 45 22 58
0.6624729 0.98730946 0.011830975 45 22 58
0.68672991 0.98696089 0.01245444 255 0 0
0.71406794 0.98874629 0.012981988 255 0 0
0.64858168 1.0140446 0.020366907 45 22 58
0.65888095 1.0116986 0.011525982 45 22 58
0.68776798 1.0124785 0.010763137 45 22 58
0.70980376 1.0135728 0.012371191 45 22 58
0.6451866 1.0384171 0.015711598 45 22 58
0.65621102 1.0378135 0.010774905 45 22 58
0.6840027 1.0368639 0.013555094 45 22 58
0.70649135 1.038684 0.013384406 45 22 58
0.64384663 1.0631031 0.013501241 45 22 58
0.65267885 1.0601714 0.010725033 255 0 0
0.68398052 1.0638975 0.012808215 45 22 58
0.70414281 1.0633965 0.011803852 255 0 0
0.59785444 1.0956713 0.0014540702 68 112 240
0.62328792 1.0983133 0.017981842 68 112 240
0.64139843 1.089227 0.012575953 68 112 240
0.66136676 1.0905709 0.012894564 68 112 240
0.6835171 1.0895365 0.012942536 68 112 240
0.70190835 1.0862547 0.0075647328 255 0 0
0.58255178 1.1139625 0.011367161 68 112 240
0.60955626 1.1122308 0.012430451 68 112 240
0.63835162 1.1084894 0.012395947 68 112 240
0.66025823 1.1016636 0.011519798 68 112 240
0.57371855 1.1399684 0.018966796 68 112 240
0.57791328 1.1349696 0.0093662562 68 112 240
0.63868278 1.1350325 0.012394825 255 0 0
0.5712499 1.1581025 0.014542398 255 0 0
0.57680678 1.1563759 0.0039873691 255 0 0
0.61932105 1.1968788 0.012078661 255 0 0
0.63543802 1.1895412 0.0037587881 255 0 0
0.6850034 1.1893166 0.012850487 255 0 0
0.61651284 1.214838 0.012769079 68 112 240
0.6331504 1.2156172 0.0039939135 255 0 0
0.68297374 1.2108425 0.012361086 255 0 0
0.61340767 1.2357727 0.011955195 126 211 152
0.63024127 1.2367849 0.0039243251 255 0 0
0.67489362 1.2447872 0.020102024 255 0 0
0.67969894 1.2355387 0.011731091 255 0 0
0.6108489 1.2654108 0.013701707 126 211 152
0.63004094 1.2538195 0.0019585043 255 0 0
0.67282408 1.2628099 0.018154679 255 0 0
0.67854005 1.260143 0.0052647898 255 0 0
0.60687268 1.288249 0.01150546 126 211 152
0.67137474 1.2884849 0.013892666 255 0 0
0.67593265 1.2822312 0.0044573843 255 0 0
0.60374516 1.313529 0.012937992 126 211 152
0.66721076 1.3140769 0.014502558 255 0 0
0.6757924 1.3143673 0.0017196238 255 0 0
0.59777778 1.3421892 0.013532943 126 211 152
0.60081613 1.3360088 0.010356361 126 211 152
0.66473228 1.3378834 0.012560688 255 0 0
0.59526163 1.3622468 0.013548974 126 211 152
0.66019136 1.3560317 0.010481126 255 0 0
0.58931088 1.3878614 0.012383101 126 211 152
0.58236074 1.4120519 0.014308091 126 211 152
0.58189237 1.4306144 0.011575282 126 211 152
0.696024 -0.41243511 0.04646467 255 0 0
0.57963514 -0.39236206 0.028304499 255 0 0
0.61383164 -0.37833604 0.029032249 255 0 0
0.6388725 -0.38207284 0.035560369 255 0 0
0.65092278 -0.37776646 0.038400676 255 0 0
0.69689709 -0.38632226 0.038980801 255 0 0
0.70113587 -0.38395521 0.032274455 255 0 0
0.72880131 -0.37700361 0.026208565 255 0 0
0.64348674 -0.37448448 0.043904841 255 0 0
0.65576112 -0.37286848 0.034922168 255 0 0
0.69548607 -0.36153102 0.03790145 255 0 0
0.70983446 -0.36296311 0.036727816 45 22 58
0.72738886 -0.3683452 0.029615294 255 0 0
0.69398254 -0.33717546 0.038078487 45 22 58
0.71361566 -0.33732772 0.036621716 45 22 58
0.77159542 -0.32949579 0.047449131 255 0 0
0.78052986 -0.32966107 0.038895912 255 0 0
0.81166148 -0.3264094 0.043333292 255 0 0
0.69349831 -0.31300515 0.037205324 45 22 58
0.71869946 -0.31262562 0.03882369 255 0 0
0.72767395 -0.30186415 0.029163212 80 168 161
0.77215791 -0.30930889 0.043858275 80 168 161
0.78512847 -0.31269625 0.036991104 255 0 0
0.8080368 -0.31005955 0.037254419 255 0 0
0.71243256 -0.29749432 0.04269911 255 0 0
0.72763836 -0.29413292 0.031636782 80 168 161
0.77073878 -0.286755 0.040733274 255 0 0
0.78416163 -0.28707018 0.03759338 45 22 58
0.806642 -0.28739685 0.035756033 45 22 58
0.76800507 -0.26149049 0.039256893 255 0 0
0.78459269 -0.26227507 0.037721287 45 22 58
0.80291563 -0.26395798 0.035922915 45 22 58
0.76618105 -0.23676923 0.039761771 45 22 58
0.78536236 -0.23745032 0.038236391 45 22 58
0.80249691 -0.2342997 0.028557662 45 22 58
0.76537389 -0.21115038 0.040491197 45 22 58
0.78581297 -0.21227254 0.036577631 45 22 58
0.80313224 -0.22040929 0.025857478 45 22 58
0.76657283 -0.18698104 0.039506476 45 22 58
0.78675961 -0.18738523 0.035783563 45 22 58
0.76552129 -0.16281292 0.038487967 45 22 58
0.78692997 -0.16182707 0.037618779 45 22 58
0.74813116 -0.13880061 0.047276493 45 22 58
0.76472133 -0.13792756 0.036953859 45 22 58
0.78351492 -0.13636275 0.038089622 45 22 58
0.74759233 -0.11194047 0.044490948 45 22 58
0.76323193 -0.11256381 0.037823569 45 22 58
0.77845055 -0.11531398 0.04007927 45 22 58
0.7462095 -0.086893782 0.040138301 45 22 58
0.7641806 -0.086920351 0.043806687 45 22 58
0.77581918 -0.094939686 0.045164835 45 22 58
0.74442762 -0.061137524 0.038742095 45 22 58
0.76424551 -0.065098338 0.046028607 45 22 58
0.6646235 -0.031904675 0.026110735 255 0 0
0.74181032 -0.037351903 0.038769692 45 22 58
0.7633599 -0.032866545 0.048343286 45 22 58
0.77955282 -0.02972433 0.035636023 45 22 58
0.66470063 -0.020055845 0.025413208 255 0 0
0.73975921 -0.013635631 0.038827747 45 22 58
0.76581639 -0.011817218 0.043122828 45 22 58
0.66710657 0.016766576 0.027022261 255 0 0
0.67607558 0.015657425 0.028863683 255 0 0
0.73814398 0.011698563 0.039579563 45 22 58
0.76233757 0.015080753 0.043503594 45 22 58
0.66503501 0.028808206 0.025344074 255 0 0
0.737611 0.038458936 0.0392671 255 0 0
0.75899059 0.038252916 0.041968282 45 22 58
0.74037129 0.064804815 0.041917566 45 22 58
0.75578415 0.063735552 0.038015835 45 22 58
0.74073774 0.088198394 0.041536894 45 22 58
0.75375497 0.086544953 0.036804698 45 22 58
0.72440529 0.114342 0.047609713 45 22 58
0.74066156 0.11345865 0.038959231 45 22 58
0.75515151 0.11231159 0.034041606 45 22 58
0.72259063 0.13554218 0.045712274 45 22 58
0.74080455 0.13714851 0.03776342 45 22 58
0.75633639 0.13593742 0.035682574 45 22 58
0.72098702 0.16277687 0.042067677 45 22 58
0.73918605 0.16230863 0.037198227 45 22 58
0.75510007 0.1603885 0.03572515 45 22 58
0.72013682 0.18666133 0.039930783 45 22 58
0.73847324 0.1876948 0.037525706 45 22 58
0.7527377 0.18584998 0.031823758 45 22 58
0.69443578 0.2182906 0.03992448 45 22 58
0.71344763 0.2162282 0.036665291 45 22 58
0.73581165 0.21189129 0.037389282 45 22 58
0.75306082 0.20445865 0.028066635 45 22 58
0.69302392 0.23374526 0.039457738 45 22 58
0.71204996 0.23732693 0.038145736 45 22 58
0.7366519 0.23376831 0.036717147 45 22 58
0.69929093 0.26850227 0.042381525 45 22 58
0.71529526 0.26208761 0.038716536 45 22 58
0.72870278 0.26277009 0.033625431 45 22 58
0.69648457 0.28834659 0.040402371 45 22 58
0.71352917 0.28754121 0.036814857 45 22 58
0.72573173 0.27765703 0.029029643 45 22 58
0.69579822 0.31304446 0.039672457 45 22 58
0.71072984 0.31166849 0.036772158 45 22 58
0.69517702 0.33640006 0.040203884 45 22 58
0.70819467 0.33696884 0.035841964 45 22 58
0.86961859 0.34371322 0.029151887 255 0 0
0.69607425 0.36172417 0.040217407 45 22 58
0.70675653 0.36218116 0.035154011 45 22 58
0.72551394 0.36189389 0.027329296 45 22 58
0.87003809 0.35652089 0.029215664 255 0 0
0.87968653 0.36191344 0.036587372 255 0 0
0.69554406 0.38877246 0.038488284 45 22 58
0.70901227 0.38656911 0.037015021 45 22 58
0.69423157 0.41098723 0.038173478 45 22 58
0.70740545 0.41112131 0.035467338 45 22 58
0.74858856 0.41406751 0.049280979 255 0 0
0.69485295 0.43596217 0.033455722 255 0 0
0.708386 0.43498936 0.031948365 255 0 0
0.74676365 0.44088435 0.045869406 255 0 0
0.75059587 0.43959916 0.049794149 255 0 0
0.69126636 0.46269247 0.030110423 255 0 0
0.70742267 0.46111849 0.029548943 255 0 0
0.74441576 0.46296394 0.043709487 255 0 0
0.75277323 0.46569696 0.046702918 255 0 0
0.78433442 0.46180531 0.038767025 255 0 0
0.68813795 0.48897469 0.03006414 255 0 0
0.70266384 0.48920363 0.026681751 255 0 0
0.74255848 0.48935482 0.043044668 255 0 0
0.75331616 0.48750052 0.044059113 45 22 58
0.78102082 0.48786983 0.037491262 255 0 0
0.68523544 0.51010013 0.028220778 45 22 58
0.74009848 0.51348966 0.043054409 255 0 0
0.76380748 0.51352262 0.043470241 45 22 58
0.77677739 0.51107872 0.035890575 45 22 58
0.67792928 0.53784776 0.029142626 45 22 58
0.72425359 0.54741108 0.044706222 45 22 58
0.73737198 0.53782523 0.041071236 45 22 58
0.76940316 0.53680009 0.037033733 45 22 58
0.6734454 0.56793714 0.025730601 255 0 0
0.67524397 0.55587661 0.027098641 255 0 0
0.72275251 0.56492805 0.045001674 255 0 0
0.73679531 0.56132573 0.039974686 45 22 58
0.76666462 0.56161821 0.037785746 255 0 0
0.7204302 0.58955795 0.041977331 255 0 0
0.7359823 0.58699733 0.038253896 45 22 58
0.76355702 0.58789623 0.036945306 45 22 58
0.71699208 0.61448729 0.041064143 45 22 58
0.732651 0.61288196 0.036678202 45 22 58
0.75924611 0.61246765 0.039038852 45 22 58
0.71719205 0.63698751 0.039675351 45 22 58
0.73174661 0.63784462 0.037367217 45 22 58
0.75684041 0.63777649 0.036438517 45 22 58
0.71460414 0.6624313 0.039480109 45 22 58
0.73400462 0.66199219 0.035260633 45 22 58
0.75394243 0.65931004 0.033121098 45 22 58
0.69875735 0.69080812 0.047239032 45 22 58
0.71331531 0.68673116 0.038700067 45 22 58
0.73727918 0.68683779 0.034582663 45 22 58
0.75145286 0.6863777 0.029187968 45 22 58
0.69656932 0.71312642 0.040377438 45 22 58
0.71146125 0.7117812 0.036173824 45 22 58
0.74274629 0.7118004 0.037342295 45 22 58
0.69374001 0.73860931 0.03922547 45 22 58
0.70790625 0.73649746 0.037002187 45 22 58
0.7391538 0.73932093 0.038311303 45 22 58
0.69108361 0.76354706 0.039249633 45 22 58
0.70673168 0.76174498 0.035108965 45 22 58
0.73593128 0.76276094 0.0379363 45 22 58
0.68872964 0.78817976 0.037819501 45 22 58
0.70508707 0.787561 0.037150081 45 22 58
0.73104894 0.78784603 0.037392445 45 22 58
0.67323691 0.81793445 0.044955418 45 22 58
0.68682027 0.81217867 0.036965284 45 22 58
0.70489526 0.81349164 0.036644664 45 22 58
0.72891575 0.81016916 0.036443245 45 22 58
0.67148238 0.83866405 0.041044049 45 22 58
0.68756872 0.83800912 0.037468236 45 22 58
0.71213222 0.83560824 0.035282906 45 22 58
0.72722524 0.83224249 0.031818606 45 22 58
0.66812009 0.86418575 0.037039988 45 22 58
0.68701929 0.86299241 0.037385501 45 22 58
0.71773678 0.86205375 0.038380183 45 22 58
0.72588956 0.85750532 0.028290285 45 22 58
0.6667158 0.88920116 0.038728639 45 22 58
0.68449575 0.88725889 0.036836177 45 22 58
0.71764088 0.88800985 0.037849609 45 22 58
0.66647351 0.91296542 0.037159715 45 22 58
0.68841827 0.91357005 0.03612737 45 22 58
0.71475685 0.91544533 0.036839396 45 22 58
0.64903545 0.94510722 0.046767801 45 22 58
0.66158247 0.9364056 0.03727207 45 22 58
0.68517572 0.9385941 0.038660239 45 22 58
0.71160364 0.93969035 0.037853252 45 22 58
0.64666778 0.96464378 0.043188676 45 22 58
0.65949047 0.962309 0.035461791 45 22 58
0.68499535 0.96210003 0.036791068 45 22 58
0.70952684 0.96535504 0.036968607 45 22 58
0.64613265 0.98912907 0.039768938 45 22 58
0.65978539 0.9856115 0.035050187 45 22 58
0.68374133 0.98954016 0.03845454 45 22 58
0.70641583 0.98905599 0.037894506 45 22 58
0.64388764 1.0124825 0.037345689 45 22 58
0.65613717 1.0124283 0.034696948 45 22 58
0.68554306 1.0155027 0.039078213 45 22 58
0.70294106 1.0122221 0.034429647 45 22 58
0.64085859 1.0377872 0.038408361 45 22 58
0.65588993 1.0351942 0.032870229 45 22 58
0.68943745 1.0374016 0.038266569 255 0 0
0.70195043 1.0401821 0.028346023 45 22 58
0.6379084 1.0625722 0.03776639 45 22 58
0.66625798 1.0600885 0.042020697 45 22 58
0.68888927 1.0639958 0.035656527 255 0 0
0.63330609 1.0884374 0.037191447 68 112 240
0.66613817 1.0909144 0.038882513 68 112 240
0.68867809 1.0864794 0.036766637 68 112 240
0.57176977 1.1162735 0.039960038 68 112 240
0.58515984 1.1114784 0.034803275 68 112 240
0.61376381 1.1146895 0.038799502 68 112 240
0.63285941 1.1085122 0.037477914 68 112 240
0.65961546 1.1025357 0.035161939 68 112 240
0.56728232 1.1381962 0.036956824 68 112 240
0.63357711 1.1359028 0.036779594 68 112 240
0.56378514 1.1593754 0.03880132 255 0 0
0.63263267 1.150461 0.035712838 255 0 0
0.61294806 1.1985116 0.039677426 255 0 0
0.6787281 1.1898115 0.03545209 255 0 0
0.60888869 1.2138395 0.038341217 255 0 0
0.67440391 1.2143624 0.043546923 255 0 0
0.67634177 1.2078558 0.036088664 255 0 0
0.59811866 1.2311591 0.046670467 255 0 0
0.60812414 1.2366087 0.035692591 255 0 0
0.6726256 1.2360656 0.036767144 255 0 0
0.67594576 1.2257376 0.028240919 255 0 0
0.59833038 1.2689111 0.0444692 126 211 152
0.60537845 1.2614522 0.036677044 126 211 152
0.66993612 1.2614146 0.038919345 126 211 152
0.59675896 1.2893908 0.039215416 126 211 152
0.60219544 1.2870014 0.026850533 126 211 152
0.66641414 1.2875082 0.036957704 126 211 152
0.5931201 1.3124681 0.038772374 126 211 152
0.60147893 1.3055751 0.025306568 126 211 152
0.6624378 1.3129916 0.037929401 255 0 0
0.5905003 1.3371439 0.03629126 126 211 152
0.65798259 1.3382385 0.037299212 255 0 0
0.58444881 1.3621753 0.038894169 126 211 152
0.65310431 1.3559588 0.036446095 255 0 0
0.57383257 1.3986353 0.046703488 126 211 152
0.57994252 1.3867533 0.03575876 126 211 152
0.57293308 1.4145223 0.043991975 126 211 152
0.57752776 1.410128 0.031563438 126 211 152
0.57281262 1.4284084 0.037859801 126 211 152
0.70484197 -0.45986128 0.072480179 45 22 58
0.70361942 -0.43596753 0.071651295 45 22 58
0.69556713 -0.41210684 0.062726937 45 22 58
0.70152539 -0.41295463 0.071959935 45 22 58
0.69540852 -0.38632515 0.062580891 255 0 0
0.70110369 -0.3879987 0.062453076 255 0 0
0.69417846 -0.36316109 0.062563315 45 22 58
0.71988416 -0.3595992 0.061235659 45 22 58
0.69306707 -0.33765247 0.062734954 45 22 58
0.71722692 -0.33808026 0.062208679 45 22 58
0.76769167 -0.32995316 0.060396522 255 0 0
0.77891898 -0.32856268 0.062623933 255 0 0
0.80133265 -0.32651567 0.065965503 255 0 0
0.69241416 -0.31344715 0.062385403 45 22 58
0.71491945 -0.31277317 0.062349349 255 0 0
0.76749402 -0.31136918 0.063383311 255 0 0
0.77914649 -0.3135674 0.061952036 255 0 0
0.80323058 -0.31264287 0.062479462 45 22 58
0.69436252 -0.29743075 0.064854406 45 22 58
0.71073198 -0.29789442 0.0631679 255 0 0
0.76787192 -0.28550047 0.06570857 45 22 58
0.7824834 -0.28639403 0.059924316 45 22 58
0.80112183 -0.28854799 0.05493217 45 22 58
0.7669602 -0.26082143 0.064616784 45 22 58
0.78611606 -0.26366743 0.061136056 45 22 58
0.76600003 -0.2363677 0.063378602 45 22 58
0.78805077 -0.23787721 0.060468927 45 22 58
0.76375616 -0.21225353 0.06223426 45 22 58
0.78687298 -0.21130186 0.061510861 45 22 58
0.74875194 -0.18271516 0.06544745 45 22 58
0.76381826 -0.18819666 0.061732259 45 22 58
0.78379565 -0.18745877 0.063399039 45 22 58
0.74690431 -0.16177307 0.063804969 45 22 58
0.7623601 -0.16219389 0.062042341 45 22 58
0.78089583 -0.16191883 0.060850631 45 22 58
0.7448101 -0.13853227 0.061764702 45 22 58
0.7633813 -0.13721532 0.064190775 45 22 58
0.77813649 -0.13990869 0.059529755 45 22 58
0.74243921 -0.1146711 0.061749384 45 22 58
0.7632032 -0.11225637 0.063401408 45 22 58
0.77681017 -0.11051343 0.052248765 45 22 58
0.73933774 -0.087940343 0.061700877 45 22 58
0.76071727 -0.087504573 0.062761426 45 22 58
0.77515692 -0.089217678 0.056132376 45 22 58
0.73940796 -0.061563682 0.063775025 45 22 58
0.75945336 -0.062732585 0.062006559 45 22 58
0.7410261 -0.036229204 0.065636523 45 22 58
0.75862354 -0.038241521 0.061824936 45 22 58
0.74163371 -0.01206021 0.064418688 45 22 58
0.76030362 -0.013363017 0.061072476 45 22 58
0.73979443 0.012703847 0.064609259 45 22 58
0.75684243 0.012557914 0.062192027 45 22 58
0.74083853 0.039096337 0.062841088 45 22 58
0.75449926 0.036752924 0.062512659 45 22 58
0.72388381 0.062281452 0.067817129 45 22 58
0.74120927 0.062082879 0.06314569 45 22 58
0.75347668 0.060063254 0.058749788 45 22 58
0.72188669 0.087914117 0.064954206 45 22 58
0.74009651 0.088227503 0.062584817 45 22 58
0.75206894 0.081508145 0.057247188 45 22 58
0.72056055 0.11384056 0.062106919 45 22 58
0.73822445 0.11349323 0.062344782 45 22 58
0.75142908 0.12092835 0.053599648 45 22 58
0.71912563 0.13801733 0.064077407 45 22 58
0.73581541 0.13787992 0.062215824 45 22 58
0.75215065 0.13747096 0.053116858 45 22 58
0.71710795 0.16309012 0.061861861 45 22 58
0.73441631 0.16223039 0.062064338 45 22 58
0.75115311 0.15405467 0.052890599 45 22 58
0.7156865 0.18839119 0.06427522 45 22 58
0.7317555 0.18699838 0.061500352 45 22 58
0.68960786 0.21837886 0.061395202 45 22 58
0.71503347 0.21474512 0.06522572 45 22 58
0.72975379 0.21094503 0.061210115 45 22 58
0.69306296 0.23622081 0.064383484 45 22 58
0.70802218 0.23851879 0.062524378 45 22 58
0.72924161 0.23135811 0.059392177 45 22 58
1.1579221 0.24100964 0.068841986 255 0 0
0.69395065 0.26391172 0.064513497 45 22 58
0.71210963 0.26355374 0.062220909 45 22 58
1.1420741 0.26539725 0.056823641 255 0 0
1.1611099 0.26014683 0.072398975 255 0 0
1.1890982 0.26694191 0.074169993 255 0 0
0.69295394 0.28893465 0.064823538 45 22 58
0.7072081 0.28744462 0.060792219 45 22 58
0.69240016 0.31254199 0.063320771 45 22 58
0.70516652 0.31203201 0.061451122 45 22 58
0.69112778 0.33793187 0.064151302 45 22 58
0.70406789 0.33538184 0.059096202 45 22 58
0.69144666 0.36257544 0.063619219 45 22 58
0.70235556 0.36240157 0.058500472 45 22 58
0.69051951 0.38723421 0.06386748 45 22 58
0.70368451 0.3881869 0.060746547 45 22 58
0.69119275 0.41111082 0.064054251 255 0 0
0.70205629 0.40977362 0.05826829 45 22 58
0.74643159 0.41591808 0.062838465 255 0 0
0.6947273 0.4281165 0.064552873 255 0 0
0.70243907 0.42997861 0.055136405 255 0 0
0.7426793 0.43910772 0.065040611 255 0 0
0.75455874 0.44250041 0.059946995 255 0 0
0.74074376 0.46382588 0.064994074 255 0 0
0.75424325 0.46160427 0.060663883 255 0 0
0.77795398 0.46403933 0.060872793 255 0 0
0.73857605 0.48845983 0.06342192 45 22 58
0.76724339 0.48759615 0.063217156 45 22 58
0.77783239 0.48352903 0.051307909 45 22 58
0.72156429 0.51738101 0.069913104 45 22 58
0.73524296 0.51247799 0.062077619 45 22 58
0.76875985 0.51213348 0.062160566 45 22 58
0.72076499 0.53900546 0.067054652 45 22 58
0.73293418 0.53688097 0.060789946 45 22 58
0.76507688 0.53615952 0.062028501 45 22 58
0.71921563 0.56387746 0.063757934 45 22 58
0.73321581 0.56188887 0.060477994 45 22 58
0.75911862 0.56283092 0.062314536 45 22 58
0.71686047 0.58852571 0.062809713 45 22 58
0.73048526 0.58702302 0.060704149 45 22 58
0.75539535 0.5874449 0.063152805 45 22 58
0.69931436 0.62199801 0.066386774 45 22 58
0.71388084 0.61269951 0.063357539 45 22 58
0.72923857 0.61002678 0.05823534 45 22 58
0.7526769 0.61121601 0.061747696 45 22 58
0.69522697 0.63576007 0.068063632 45 22 58
0.71243799 0.63861436 0.062405031 45 22 58
0.74281085 0.63703346 0.06223749 45 22 58
0.75196701 0.63015735 0.053893864 45 22 58
0.69603157 0.66196692 0.064964212 45 22 58
0.71080339 0.66168916 0.061333299 45 22 58
0.74378759 0.66336757 0.062752299 45 22 58
0.69359636 0.68795556 0.063685969 45 22 58
0.70946157 0.6868875 0.062409412 45 22 58
0.73929012 0.68820846 0.062676176 45 22 58
0.69014382 0.71304685 0.063116096 45 22 58
0.70686191 0.71122414 0.061874341 45 22 58
0.73683351 0.71229243 0.062507659 45 22 58
0.67482436 0.74845111 0.073734641 45 22 58
0.68895882 0.73857695 0.063112602 45 22 58
0.70375794 0.73574239 0.061887953 45 22 58
0.7334494 0.73608291 0.06281358 45 22 58
0.67290139 0.76579159 0.069217794 45 22 58
0.68871295 0.76269758 0.062863894 45 22 58
0.70348829 0.75996315 0.059083104 45 22 58
0.72936237 0.76219451 0.062298901 45 22 58
0.67208308 0.79080826 0.064369172 45 22 58
0.68847752 0.78708571 0.061854426 45 22 58
0.71456683 0.78853744 0.061973624 45 22 58
0.72603101 0.78296161 0.055751048 45 22 58
0.67035168 0.81150085 0.063822001 45 22 58
0.68982291 0.8122558 0.061698794 45 22 58
0.71635985 0.81278014 0.06136236 45 22 58
0.66606879 0.83667129 0.062787868 45 22 58
0.68742406 0.83769208 0.061639555 45 22 58
0.7190727 0.83821619 0.061201852 45 22 58
0.66344285 0.86226368 0.063353173 45 22 58
0.68365198 0.86267233 0.061388809 45 22 58
0.71678162 0.86168015 0.063091114 45 22 58
0.66124868 0.8872034 0.061967943 45 22 58
0.68304056 0.88696307 0.0618935 45 22 58
0.71324116 0.88621116 0.061185591 45 22 58
0.64737564 0.91231126 0.072652683 45 22 58
0.6600951 0.91212642 0.062287301 45 22 58
0.68233728 0.91255391 0.060892548 45 22 58
0.71053517 0.9106698 0.062392164 45 22 58
0.64719921 0.9366895 0.065753281 45 22 58
0.65924925 0.93697262 0.062651664 45 22 58
0.68102896 0.93770528 0.060715869 45 22 58
0.70783067 0.93629622 0.061518773 45 22 58
0.64270699 0.96208125 0.063962795 45 22 58
0.66030681 0.96271181 0.061815087 45 22 58
0.68057066 0.96148634 0.059154492 255 0 0
0.70392531 0.96049434 0.063022472 45 22 58
0.64189672 0.98689711 0.064434923 45 22 58
0.66553581 0.98610139 0.062515177 45 22 58
0.68602347 0.98469454 0.059434488 255 0 0
0.70227993 0.98467517 0.061423197 45 22 58
0.63856947 1.012432 0.062350411 45 22 58
0.66751355 1.0126455 0.060921412 45 22 58
0.69533974 1.0123948 0.061105583 45 22 58
0.70237011 1.0008202 0.058751699 45 22 58
0.62404531 1.041883 0.069945149 45 22 58
0.63402236 1.037342 0.062059555 45 22 58
0.66682053 1.0381366 0.063104585 45 22 58
0.69464493 1.0368972 0.063179903 45 22 58
0.6223442 1.0634873 0.070024081 45 22 58
0.6297912 1.0618713 0.05979979 45 22 58
0.66337532 1.0640897 0.062835157 45 22 58
0.69070488 1.0633705 0.062752157 45 22 58
0.61993659 1.0884749 0.064596415 45 22 58
0.63186979 1.0907686 0.061148882 45 22 58
0.65898979 1.0893965 0.060799401 68 112 240
0.68596894 1.0880396 0.062767379 68 112 240
0.56434822 1.1160971 0.062941335 68 112 240
0.59118116 1.1152313 0.063212268 68 112 240
0.61420268 1.1107372 0.062335297 68 112 240
0.63183218 1.1093792 0.061667841 68 112 240
0.65388203 1.1034983 0.062781692 68 112 240
0.54909801 1.148999 0.074968904 255 0 0
0.56002599 1.1372217 0.061816964 255 0 0
0.62413037 1.141608 0.067318194 68 112 240
0.62793618 1.133749 0.060558092 68 112 240
0.54722315 1.159456 0.069883667 255 0 0
0.55723804 1.1589144 0.061007693 255 0 0
0.67233485 1.187353 0.068932988 255 0 0
0.675569 1.1881107 0.055327199 255 0 0
0.59495968 1.2167736 0.065018237 255 0 0
0.60324895 1.2133938 0.060693961 68 112 240
0.67146254 1.2112578 0.063648641 255 0 0
0.6754235 1.208771 0.054806605 255 0 0
0.5958423 1.2345183 0.065002888 255 0 0
0.60126436 1.2340519 0.056414321 255 0 0
0.66811526 1.2371231 0.061967839 126 211 152
0.59566015 1.2609512 0.062604308 126 211 152
0.66387558 1.261658 0.063588426 126 211 152
0.59115052 1.2879034 0.061912663 126 211 152
0.66105074 1.288198 0.061832752 126 211 152
0.58684999 1.3141077 0.062236845 126 211 152
0.65694284 1.3124851 0.063422948 126 211 152
0.58412552 1.3383462 0.06125097 126 211 152
0.64756179 1.342281 0.070626795 255 0 0
0.65399766 1.3379425 0.05953053 255 0 0
0.57423115 1.3714057 0.071478799 126 211 152
0.57989073 1.3627599 0.063495047 126 211 152
0.64606524 1.3553556 0.066420987 255 0 0
0.65184134 1.3565264 0.054499015 255 0 0
0.57113135 1.3896589 0.065127395 126 211 152
0.57693988 1.3840612 0.055926621 126 211 152
0.5688324 1.4120884 0.064706013 126 211 152
0.56727445 1.4257516 0.056015462 126 211 152
0.70641881 -0.48558193 0.088796429 45 22 58
0.70486236 -0.46187738 0.088507406 45 22 58
0.70452708 -0.43978962 0.086441182 45 22 58
0.69564718 -0.41200089 0.087153845 45 22 58
0.70098478 -0.41459695 0.087671414 45 22 58
0.69319314 -0.38419583 0.087446675 45 22 58
0.70090079 -0.39084983 0.084579609 45 22 58
0.69330949 -0.36189052 0.087303817 45 22 58
0.71965283 -0.3606227 0.088220872 45 22 58
0.72600859 -0.36932772 0.076248631 45 22 58
0.69266236 -0.33713663 0.087771632 45 22 58
0.71892023 -0.33534399 0.088394873 45 22 58
0.76941651 -0.32883134 0.085238226 255 0 0
0.79593587 -0.32887432 0.089378402 255 0 0
0.69163507 -0.31199196 0.086796656 255 0 0
0.71498179 -0.3103148 0.086428896 255 0 0
0.76605546 -0.31249833 0.087438792 255 0 0
0.79310036 -0.31311828 0.085419647 45 22 58
0.69167221 -0.29668602 0.090446018 255 0 0
0.71083182 -0.29450393 0.088114612 255 0 0
0.76384044 -0.28761992 0.088620469 45 22 58
0.78913325 -0.28679591 0.08589159 45 22 58
0.74999028 -0.25461876 0.099561721 45 22 58
0.76241982 -0.26279119 0.086900741 45 22 58
0.78654927 -0.2619963 0.08879979 45 22 58
0.74900615 -0.23966247 0.096635327 45 22 58
0.76035202 -0.23717231 0.086657122 45 22 58
0.78353548 -0.23772883 0.087097868 45 22 58
0.74675071 -0.21099982 0.089460872 45 22 58
0.76037472 -0.21278946 0.085842088 45 22 58
0.77990705 -0.21232183 0.088055559 45 22 58
0.74396753 -0.18571168 0.087676115 45 22 58
0.76034665 -0.18690282 0.088183172 45 22 58
0.77705091 -0.18789026 0.08566267 45 22 58
0.74195629 -0.16150732 0.088830262 45 22 58
0.76173288 -0.16226327 0.087986425 45 22 58
0.77717382 -0.16512544 0.080894157 45 22 58
0.74183506 -0.13587087 0.089216314 45 22 58
0.76080042 -0.1377493 0.086347751 45 22 58
0.77587366 -0.14272647 0.082754672 45 22 58
0.74222982 -0.11365606 0.089544058 45 22 58
0.76127154 -0.11243949 0.085601591 45 22 58
0.73928416 -0.087338068 0.089158647 45 22 58
0.75845104 -0.087460674 0.085594326 45 22 58
0.73975158 -0.062039379 0.087605514 45 22 58
0.75735873 -0.063069232 0.086655937 45 22 58
0.7236225 -0.036520921 0.096173465 45 22 58
0.73953193 -0.037999496 0.08742252 45 22 58
0.75458884 -0.037648339 0.086495392 45 22 58
0.72335076 -0.01095814 0.093458824 45 22 58
0.73975277 -0.012745989 0.087129183 45 22 58
0.75610477 -0.010936263 0.084574044 45 22 58
0.72198367 0.01378741 0.089766867 45 22 58
0.73922718 0.012246664 0.087294616 45 22 58
0.75380731 0.011410356 0.087277636 45 22 58
0.7202335 0.037333678 0.087497547 45 22 58
0.73931974 0.0372754 0.087420523 45 22 58
0.75253057 0.033341199 0.084404171 45 22 58
0.71781665 0.06267757 0.0868342 45 22 58
0.73743862 0.062643021 0.087750107 45 22 58
0.75172561 0.056444913 0.079125948 45 22 58
0.71490067 0.088258751 0.086721621 45 22 58
0.73461443 0.086952865 0.087366387 45 22 58
0.7166813 0.11270527 0.089866728 45 22 58
0.73212463 0.11253165 0.086201243 45 22 58
0.7177974 0.13816638 0.09012837 45 22 58
0.73084342 0.1373321 0.084651582 45 22 58
0.71595889 0.1635474 0.089022852 45 22 58
0.72822124 0.16097789 0.084515601 45 22 58
0.69801247 0.19117489 0.094594233 45 22 58
0.7167328 0.18782417 0.088031583 45 22 58
0.7267769 0.18351382 0.081010081 45 22 58
0.67227048 0.22126886 0.084360138 45 22 58
0.69249105 0.21581702 0.08898548 45 22 58
0.71667349 0.21207581 0.087294184 45 22 58
0.72583336 0.2098856 0.077022359 45 22 58
1.1661897 0.22097942 0.095555916 255 0 0
0.67263627 0.23292924 0.094349645 45 22 58
0.6923154 0.23895691 0.086574562 45 22 58
0.71397585 0.23400523 0.08650367 45 22 58
1.1315768 0.23556784 0.083406709 255 0 0
1.1605566 0.23623206 0.08530812 255 0 0
0.69152772 0.2617777 0.087473646 45 22 58
0.70689505 0.26427746 0.086119354 45 22 58
1.1659745 0.26510835 0.083845332 255 0 0
1.1792109 0.26629353 0.090150282 255 0 0
0.69133037 0.28882623 0.087426797 45 22 58
0.70334661 0.2846247 0.083776802 45 22 58
0.67287952 0.31770831 0.098903418 45 22 58
0.68894947 0.31300956 0.087422617 45 22 58
0.70195043 0.31165203 0.077930897 45 22 58
0.67237782 0.33847666 0.093780205 45 22 58
0.68735701 0.33675116 0.087235436 45 22 58
0.70166683 0.32731417 0.077140555 45 22 58
0.67347711 0.36106411 0.092672683 45 22 58
0.68756276 0.36259869 0.087035537 45 22 58
0.70015192 0.3648532 0.077413976 45 22 58
0.67286128 0.38743395 0.095796451 45 22 58
0.68736631 0.38782957 0.087580144 45 22 58
0.70239627 0.38251895 0.075867236 45 22 58
0.67356902 0.41149935 0.095680207 45 22 58
0.68675089 0.41098365 0.086401843 45 22 58
0.7369771 0.41552728 0.085223898 45 22 58
0.68627608 0.4294439 0.089352652 255 0 0
0.73510605 0.43917042 0.087519407 45 22 58
0.72269207 0.46389878 0.092991725 45 22 58
0.73580724 0.46303499 0.086201437 45 22 58
0.77159446 0.46513975 0.085770555 45 22 58
0.72105896 0.48946807 0.090350918 45 22 58
0.73258078 0.48759592 0.087336667 45 22 58
0.77046996 0.48624617 0.087473311 255 0 0
0.71946692 0.51398128 0.088533193 45 22 58
0.73123777 0.51138997 0.085385606 45 22 58
0.76553506 0.5131309 0.086685665 45 22 58
0.71721268 0.53762555 0.08838544 45 22 58
0.73035866 0.53584582 0.086743027 45 22 58
0.76097226 0.53800702 0.088952035 45 22 58
0.69934714 0.56855601 0.096927822 45 22 58
0.71490663 0.56263548 0.086705498 45 22 58
0.72930294 0.56040984 0.086876221 45 22 58
0.7560246 0.56289953 0.086925544 45 22 58
0.69737959 0.58858049 0.093202539 45 22 58
0.71406734 0.58763874 0.088182546 45 22 58
0.73041695 0.58235455 0.084920734 45 22 58
0.75177306 0.5871259 0.086437441 45 22 58
0.69644463 0.61212856 0.086362742 45 22 58
0.71250933 0.61298293 0.087393656 45 22 58
0.74813563 0.61400706 0.087962568 45 22 58
0.7507441 0.60839087 0.08332222 45 22 58
0.69293153 0.63893515 0.088956982 45 22 58
0.70958823 0.63806504 0.086942695 45 22 58
0.74513954 0.63712293 0.088410027 45 22 58
0.69182795 0.66278911 0.08853101 45 22 58
0.70777178 0.66206908 0.086753465 45 22 58
0.74151617 0.66250068 0.087531507 45 22 58
0.69094598 0.68798602 0.089591585 45 22 58
0.70680124 0.68691063 0.08425945 45 22 58
0.73688686 0.68657869 0.087444626 45 22 58
0.67003626 0.72386658 0.099695712 45 22 58
0.68822169 0.71239167 0.089187756 45 22 58
0.70481837 0.71127218 0.082631871 45 22 58
0.73353869 0.71360397 0.087354347 45 22 58
0.67142868 0.74243623 0.093796156 45 22 58
0.68719631 0.73676509 0.087344036 45 22 58
0.70584226 0.73426193 0.081451237 45 22 58
0.72989029 0.73620993 0.088171951 45 22 58
0.67019635 0.76295048 0.089906082 45 22 58
0.68724233 0.7625559 0.086830854 45 22 58
0.71643621 0.76452237 0.089741237 45 22 58
0.72768843 0.76141429 0.082548939 45 22 58
0.66749132 0.7886101 0.089343674 45 22 58
0.68551487 0.78817296 0.086732775 45 22 58
0.7203511 0.78666973 0.088695295 45 22 58
0.72723889 0.77667457 0.079409622 45 22 58
0.66436434 0.81217569 0.087381423 45 22 58
0.68505055 0.81328666 0.086955555 45 22 58
0.71721286 0.81211436 0.08722996 45 22 58
0.64862883 0.84048301 0.096153632 45 22 58
0.66069692 0.83785671 0.087096058 45 22 58
0.68026978 0.83768564 0.087458767 45 22 58
0.71405911 0.83765197 0.087995276 45 22 58
0.64650381 0.86323053 0.091519959 45 22 58
0.66319388 0.86296219 0.088263556 45 22 58
0.67731649 0.86009467 0.083186336 45 22 58
0.71067888 0.86469758 0.087639801 45 22 58
0.64434379 0.88884085 0.089923576 45 22 58
0.66247791 0.88684481 0.086611122 45 22 58
0.67708421 0.88749689 0.082621709 45 22 58
0.70742077 0.88823444 0.087173522 45 22 58
0.64239818 0.91329545 0.088214099 45 22 58
0.66346842 0.91100043 0.087570705 45 22 58
0.68277091 0.91180021 0.082951635 45 22 58
0.70547563 0.9111532 0.085774288 45 22 58
0.64016432 0.93819517 0.088629745 45 22 58
0.66448724 0.93798482 0.087201692 45 22 58
0.69832486 0.93821967 0.093930438 45 22 58
0.70356178 0.9355976 0.082017124 45 22 58
0.63805914 0.96144927 0.087760739 45 22 58
0.66350418 0.96361142 0.086723976 45 22 58
0.69600606 0.96119881 0.091017708 45 22 58
0.70195061 0.95956296 0.07920257 45 22 58
0.62362039 0.99634361 0.091538534 45 22 58
0.63448507 0.98746318 0.087203681 45 22 58
0.66289359 0.9863835 0.088584244 45 22 58
0.69364697 0.98603469 0.087899961 45 22 58
0.62141782 1.0156633 0.091930434 45 22 58
0.63137925 1.0119441 0.086436875 45 22 58
0.66407716 1.0124501 0.086508363 45 22 58
0.68930304 1.0105741 0.087419756 45 22 58
0.62161583 1.0390643 0.088504262 45 22 58
0.63077855 1.03494 0.08507625 45 22 58
0.65998489 1.0387961 0.089323327 255 0 0
0.68561029 1.0388495 0.086830087 45 22 58
0.61815059 1.0619861 0.088049628 45 22 58
0.63053811 1.0600649 0.085815229 45 22 58
0.65656865 1.0647715 0.087289214 68 112 240
0.68174827 1.0635306 0.087792329 45 22 58
0.61347413 1.0883076 0.08783979 45 22 58
0.63579226 1.0901084 0.089192167 68 112 240
0.6577965 1.0921818 0.085950315 68 112 240
0.67929232 1.087727 0.085821897 68 112 240
0.54927063 1.1234053 0.091860682 68 112 240
0.55858076 1.1164193 0.086845025 68 112 240
0.58987236 1.1185993 0.088711016 68 112 240
0.61447567 1.1113583 0.088488631 68 112 240
0.63558447 1.1081562 0.085627638 68 112 240
0.65081978 1.1055598 0.076217562 68 112 240
0.54560626 1.1391332 0.090942994 68 112 240
0.55444825 1.1375915 0.0859235 68 112 240
0.6219427 1.1359142 0.086503059 255 0 0
0.54134899 1.1603439 0.089290619 255 0 0
0.55314916 1.158694 0.085428894 255 0 0
0.66546386 1.1879461 0.08827237 255 0 0
0.5927316 1.2161256 0.088614412 255 0 0
0.60055804 1.2113949 0.080272049 255 0 0
0.66385233 1.2109307 0.086791173 68 112 240
0.59315789 1.2357547 0.08790227 68 112 240
0.65978861 1.2364277 0.087395303 126 211 152
0.58885151 1.2631251 0.087806188 126 211 152
0.65562153 1.2628469 0.086740993 126 211 152
0.5844022 1.2867368 0.086726062 126 211 152
0.64951175 1.2901986 0.096224681 126 211 152
0.65381908 1.285408 0.085611068 126 211 152
0.57224917 1.3199693 0.099360824 126 211 152
0.58021158 1.3125861 0.087280259 126 211 152
0.6479308 1.3132904 0.091452159 126 211 152
0.65167457 1.308511 0.082529843 126 211 152
0.57244051 1.3388366 0.091051579 126 211 152
0.58002043 1.3364978 0.078322917 126 211 152
0.64538544 1.3368109 0.086314373 255 0 0
0.56934094 1.362799 0.087142281 126 211 152
0.64143324 1.3544586 0.088470392 255 0 0
0.56403232 1.3855321 0.087197676 126 211 152
0.56066817 1.4122901 0.087544113 126 211 152
0.5632655 1.4252752 0.077632472 126 211 152
0.70513153 -0.48380238 0.10955044 45 22 58
0.70395678 -0.46264687 0.11365603 45 22 58
0.70434517 -0.43898118 0.11157361 45 22 58
0.69580311 -0.41169697 0.11201392 45 22 58
0.70063692 -0.41189811 0.11105487 45 22 58
0.69335079 -0.38544992 0.11183741 45 22 58
0.70024431 -0.39403129 0.11297666 45 22 58
0.69208163 -0.36263603 0.11159973 45 22 58
0.72036242 -0.35743257 0.11233491 45 22 58
0.69127244 -0.33724928 0.11231503 45 22 58
0.7181074 -0.3388969 0.11273655 45 22 58
0.75874823 -0.32705519 0.10837712 255 0 0
0.69100529 -0.31239054 0.1122065 255 0 0
0.71636558 -0.31243569 0.11139348 255 0 0
0.74779457 -0.30792084 0.12090707 255 0 0
0.76019925 -0.31167242 0.11181095 255 0 0
0.78826618 -0.30902848 0.11125796 45 22 58
0.69182205 -0.29563767 0.11408721 255 0 0
0.71456659 -0.29471454 0.11531883 255 0 0
0.74706411 -0.28609526 0.11928615 255 0 0
0.758955 -0.28777587 0.1124237 45 22 58
0.78521037 -0.28630149 0.11338957 45 22 58
0.74671453 -0.26343656 0.11488184 45 22 58
0.75895536 -0.26213965 0.11229366 45 22 58
0.78066665 -0.2631475 0.1116467 45 22 58
0.74501216 -0.23766513 0.11498509 45 22 58
0.75959563 -0.23761399 0.11276306 45 22 58
0.77737892 -0.23854364 0.10975214 45 22 58
0.74361676 -0.2126544 0.11507989 45 22 58
0.75918198 -0.21275651 0.11212078 45 22 58
0.77615184 -0.21540341 0.10740627 45 22 58
0.7421965 -0.18658982 0.11481348 45 22 58
0.76315016 -0.18634856 0.11054 45 22 58
0.77581757 -0.19952448 0.10463512 45 22 58
0.74253488 -0.16178104 0.11296184 45 22 58
0.76448631 -0.16372155 0.11193366 45 22 58
0.7406162 -0.13735332 0.11293139 45 22 58
0.76293343 -0.13749997 0.11196451 45 22 58
0.73817998 -0.11263646 0.11225098 45 22 58
0.75899619 -0.11245719 0.11270576 45 22 58
0.72281301 -0.081977896 0.11464031 45 22 58
0.7381134 -0.088232324 0.11249522 45 22 58
0.75601059 -0.087825246 0.11176974 45 22 58
0.72184026 -0.061757457 0.11184816 45 22 58
0.73994148 -0.061765276 0.11319725 45 22 58
0.75314546 -0.062308677 0.1096912 45 22 58
0.71999907 -0.03870922 0.11180984 45 22 58
0.73917389 -0.03668024 0.11326595 45 22 58
0.7514022 -0.038820099 0.10799965 45 22 58
0.71747977 -0.012890096 0.11169644 45 22 58
0.73701966 -0.011770133 0.11304092 45 22 58
0.75313056 -0.013510457 0.10674046 45 22 58
0.7152071 0.012597138 0.11461779 45 22 58
0.73609418 0.01323734 0.11237024 45 22 58
0.7517243 0.0083447099 0.10901149 45 22 58
0.71565306 0.038998127 0.11624952 45 22 58
0.73535907 0.037578646 0.11137985 45 22 58
0.71699333 0.063638464 0.11533785 45 22 58
0.73380655 0.062309887 0.11020811 45 22 58
0.71467912 0.088113599 0.11460198 45 22 58
0.73083502 0.08700563 0.11065011 45 22 58
0.69802612 0.11431181 0.12280476 45 22 58
0.71553338 0.11223341 0.11217366 45 22 58
0.72909331 0.11168176 0.11113247 45 22 58
0.69736505 0.13970259 0.11852121 45 22 58
0.71659809 0.13753852 0.11234297 45 22 58
0.72750509 0.13585682 0.10602771 45 22 58
0.69598883 0.16248335 0.11526538 45 22 58
0.71627408 0.16292422 0.11111624 45 22 58
0.725173 0.15177357 0.10175135 45 22 58
0.69389576 0.18814765 0.11364117 45 22 58
0.71281767 0.18744484 0.11193444 45 22 58
0.67186379 0.21807721 0.116166 45 22 58
0.68823928 0.21444236 0.11132666 45 22 58
0.7118203 0.21208516 0.11112665 45 22 58
1.1689291 0.2185954 0.10475644 255 0 0
0.6673407 0.23422047 0.11507705 45 22 58
0.68766636 0.23839626 0.11141259 45 22 58
0.70933664 0.23123854 0.11320172 45 22 58
1.1650771 0.23076193 0.10396896 255 0 0
0.67322534 0.27218428 0.12127481 45 22 58
0.68838233 0.26249635 0.11297055 45 22 58
0.70351815 0.26391613 0.10894243 45 22 58
1.1929256 0.26260242 0.10003859 255 0 0
0.67268825 0.28882092 0.11459745 45 22 58
0.68825936 0.28811845 0.11136798 45 22 58
0.67084777 0.31374529 0.11511196 45 22 58
0.68454772 0.31173947 0.11181203 45 22 58
0.66958249 0.33798045 0.11487999 45 22 58
0.68169528 0.33719376 0.11136521 45 22 58
0.66938525 0.36193958 0.11295923 45 22 58
0.68132901 0.36187726 0.11152289 45 22 58
0.67086071 0.38746858 0.11239601 45 22 58
0.68315649 0.3867408 0.11181729 45 22 58
0.66974133 0.41068733 0.11576279 45 22 58
0.68137485 0.41175622 0.11134651 45 22 58
0.73136759 0.41586137 0.11092293 45 22 58
0.68259299 0.43122414 0.11230076 45 22 58
0.72160929 0.43680125 0.11392907 45 22 58
0.73142272 0.43923542 0.11188449 45 22 58
0.71916348 0.46311691 0.11473411 45 22 58
0.73172915 0.46240407 0.111559 45 22 58
0.76838046 0.46717182 0.11032771 45 22 58
0.71896726 0.48908457 0.11540598 45 22 58
0.72877169 0.48598233 0.11067447 45 22 58
0.76451033 0.48730594 0.11212862 255 0 0
0.71637374 0.51216149 0.11402608 45 22 58
0.72910249 0.51066667 0.10802012 45 22 58
0.75894302 0.51179177 0.1124626 45 22 58
0.69790268 0.54329824 0.12113784 45 22 58
0.71337986 0.53762406 0.11288148 45 22 58
0.73068905 0.53667146 0.10854442 45 22 58
0.75495428 0.53759319 0.11135866 45 22 58
0.69588113 0.56595248 0.11701288 45 22 58
0.71147281 0.56217808 0.11233929 45 22 58
0.74219167 0.56226289 0.11236612 45 22 58
0.75248849 0.55767822 0.10718893 45 22 58
0.69541341 0.5894419 0.11564448 45 22 58
0.70927197 0.58733946 0.11182056 45 22 58
0.74409252 0.58862776 0.11302499 45 22 58
0.69484711 0.61355215 0.11332591 45 22 58
0.70641422 0.61173171 0.11018728 45 22 58
0.74154049 0.61191791 0.11221538 45 22 58
0.69240034 0.63793141 0.11350951 45 22 58
0.70430452 0.63753635 0.11145269 45 22 58
0.73803079 0.63781625 0.11191403 45 22 58
0.67303735 0.66594303 0.12050006 45 22 58
0.68995851 0.66240937 0.11223771 45 22 58
0.70266533 0.66193831 0.1087202 45 22 58
0.73416167 0.66246045 0.11315298 45 22 58
0.67114234 0.68967426 0.11490431 45 22 58
0.68889761 0.68826926 0.11233123 45 22 58
0.70279014 0.67909735 0.10500978 45 22 58
0.72920704 0.68895608 0.11174343 45 22 58
0.66955769 0.71612984 0.11323897 45 22 58
0.68596458 0.71147782 0.11202307 45 22 58
0.72371221 0.71356249 0.11791796 45 22 58
0.72793365 0.70952719 0.10658468 45 22 58
0.66721183 0.73853725 0.11364298 45 22 58
0.68443298 0.73619062 0.11202146 45 22 58
0.72249818 0.73761493 0.11186845 45 22 58
0.72506744 0.73156935 0.10358146 45 22 58
0.66462928 0.76210093 0.11321622 45 22 58
0.68311536 0.76247984 0.11139598 45 22 58
0.71876484 0.76241374 0.11369734 45 22 58
0.64957058 0.78843284 0.12125532 45 22 58
0.6615293 0.78584355 0.1126475 45 22 58
0.68055332 0.78688878 0.11225058 45 22 58
0.71442091 0.78703654 0.11221328 45 22 58
0.64768976 0.81426078 0.11647529 45 22 58
0.66072226 0.8137337 0.11213788 45 22 58
0.67818451 0.81164247 0.11100167 45 22 58
0.70969731 0.81153309 0.11298821 45 22 58
0.64372325 0.83633739 0.11346702 45 22 58
0.66362607 0.83857983 0.11418541 45 22 58
0.67694479 0.83377957 0.10922194 45 22 58
0.7064904 0.83667874 0.11144349 45 22 58
0.64235997 0.86381721 0.11106015 45 22 58
0.66412485 0.86151284 0.11337874 45 22 58
0.6997999 0.86352724 0.12330158 45 22 58
0.70400077 0.86147434 0.11155062 45 22 58
0.6401459 0.8879981 0.11333726 45 22 58
0.66209227 0.88631535 0.11279349 45 22 58
0.69834775 0.89287001 0.11481582 45 22 58
0.7015298 0.8836478 0.11197976 45 22 58
0.63888204 0.91451496 0.11315669 45 22 58
0.66094577 0.91120583 0.11207134 45 22 58
0.6961202 0.91417783 0.11206002 45 22 58
0.63737524 0.93792909 0.11317552 45 22 58
