ply
format ascii 1.0
comment PCL generated
element vertex 1066
property float x
property float y
property float z
property uchar red
property uchar green
property uchar blue
element camera 0
property float view_px
property float view_py
property float view_pz
property float x_axisx
property float x_axisy
property float x_axisz
property float y_axisx
property float y_axisy
property float y_axisz
property float z_axisx
property float z_axisy
property float z_axisz
property float focal
property float scalex
property float scaley
property float centerx
property float centery
property int viewportx
property int viewporty
property float k1
property float k2
end_header
0.63763732 -0.32727867 -0.032923572 255 0 0
0.60162836 -0.30820447 -0.045841955 255 0 0
0.6271987 -0.31821603 -0.037470281 255 0 0
0.61413383 -0.2907182 -0.031445354 255 0 0
0.63744867 -0.28225702 -0.035217598 255 0 0
0.6533097 -0.2875306 -0.02813036 255 0 0
0.57987487 -0.26453578 -0.04949737 143 14 150
0.61998034 -0.25923824 -0.038095966 143 14 150
0.63080621 -0.25532079 -0.042364191 143 14 150
0.65881455 -0.27383584 -0.028214261 255 0 0
0.61403769 -0.2477853 -0.044868153 143 14 150
0.64158976 -0.24102744 -0.03888417 143 14 150
0.6609081 -0.23607834 -0.038618065 143 14 150
0.68603992 -0.23728266 -0.033909034 143 14 150
0.71202826 -0.23299122 -0.032861624 143 14 150
0.7311089 -0.22746848 -0.041694388 255 0 0
0.71999902 -0.22467281 -0.027273625 255 0 0
0.73855013 -0.20930982 -0.039557714 255 0 0
0.75418133 -0.20354863 -0.036701795 255 0 0
0.74447381 -0.18657237 -0.044080369 255 0 0
0.75023371 -0.18959704 -0.028433219 255 0 0
0.78284448 -0.194662 -0.037396945 255 0 0
0.69226414 -0.15661769 -0.045086429 255 0 0
0.76006418 -0.17347609 -0.032144412 255 0 0
0.66397113 -0.13672493 -0.044394646 155 76 93
0.68344551 -0.13825393 -0.041204154 255 0 0
0.6494211 -0.10866296 -0.045340784 155 76 93
0.66827071 -0.11125209 -0.041598033 155 76 93
0.67918354 -0.11610945 -0.038929552 155 76 93
0.64535105 -0.089052379 -0.038602203 155 76 93
0.6618824 -0.0865499 -0.034280457 155 76 93
0.64317214 -0.061320685 -0.036059864 155 76 93
0.66374612 -0.068316959 -0.036969773 155 76 93
0.63989371 -0.031676464 -0.037407979 155 76 93
0.6584394 -0.040394504 -0.037359402 155 76 93
0.63892484 -0.005606547 -0.031923756 155 76 93
0.65546769 -0.014148156 -0.035391569 155 76 93
0.63787156 0.015621862 -0.0356833 155 76 93
0.6534524 0.010123717 -0.037248168 155 76 93
0.64141768 0.040189147 -0.040975377 155 76 93
0.65580654 0.039717909 -0.035912953 155 76 93
0.62467396 0.054367833 -0.035828814 155 76 93
0.64056927 0.066022731 -0.039013855 155 76 93
0.65386212 0.056918949 -0.042008825 155 76 93
0.64099181 0.086938411 -0.03640195 155 76 93
0.65142399 0.08024244 -0.032414325 155 76 93
0.7583431 0.098028868 -0.033874795 124 225 27
0.64355534 0.11078095 -0.041487344 155 76 93
0.65513861 0.11230627 -0.040660355 155 76 93
0.75715709 0.11265039 -0.028689295 124 225 27
0.64232463 0.13291885 -0.042469211 155 76 93
0.65893513 0.1374763 -0.04060059 155 76 93
0.75624573 0.13944745 -0.030915391 124 225 27
0.77908969 0.14066675 -0.04426685 124 225 27
0.66065067 0.15002811 -0.041867092 255 0 0
0.74560553 0.16873118 -0.034062609 124 225 27
0.76417512 0.16251063 -0.035537403 124 225 27
0.73835647 0.19058897 -0.035641823 124 225 27
0.7588374 0.19048984 -0.036409769 124 225 27
0.71594924 0.21435367 -0.03414242 124 225 27
0.73847759 0.21645494 -0.036527801 124 225 27
0.76168448 0.20911613 -0.039283641 124 225 27
0.74233705 0.24220365 -0.038056523 124 225 27
0.75758952 0.23631296 -0.037174709 124 225 27
0.73931086 0.26269609 -0.034939718 124 225 27
0.75681639 0.25468278 -0.045978911 124 225 27
0.71968997 0.29415673 -0.034262184 124 225 27
0.73879409 0.28596529 -0.041112393 124 225 27
0.71969986 0.31829584 -0.034515973 124 225 27
0.73350161 0.3091073 -0.036064718 124 225 27
0.72086543 0.33186227 -0.029734325 124 225 27
0.7325666 0.33775821 -0.041095652 124 225 27
0.71836776 0.36363301 -0.034753338 124 225 27
0.73272407 0.36195937 -0.044483569 124 225 27
0.62843555 0.39977002 -0.049370922 38 178 66
0.71585715 0.38956091 -0.035309255 124 225 27
0.72802985 0.39276126 -0.043495078 124 225 27
0.6431855 0.40292314 -0.033175826 255 0 0
0.6529597 0.40316764 -0.044511773 255 0 0
0.69986218 0.41682011 -0.030668586 124 225 27
0.71726584 0.41358769 -0.036056608 124 225 27
0.72806638 0.40325862 -0.048030183 124 225 27
0.69977075 0.43488717 -0.026053697 124 225 27
0.71304834 0.43631908 -0.03764933 124 225 27
0.69890749 0.46312514 -0.041184396 124 225 27
0.71061659 0.45917201 -0.039799184 124 225 27
0.74002278 0.46177068 -0.031762376 124 225 27
0.69772136 0.4912149 -0.03058866 124 225 27
0.71200269 0.48461807 -0.042434823 124 225 27
0.73667443 0.48997456 -0.035133243 124 225 27
0.69379008 0.50731558 -0.038710766 124 225 27
0.70785254 0.51485664 -0.041145086 124 225 27
0.73326433 0.51571923 -0.038217537 124 225 27
0.68754244 0.54070646 -0.033451676 124 225 27
0.70710206 0.53572732 -0.034881439 124 225 27
0.68368948 0.56330085 -0.035175286 124 225 27
0.70773029 0.55614018 -0.043497335 124 225 27
0.68596119 0.5869332 -0.03675922 124 225 27
0.71726048 0.59454143 -0.045496464 124 225 27
0.6727373 0.61340392 -0.041012105 124 225 27
0.6930747 0.6133042 -0.03751456 124 225 27
0.72005373 0.61363292 -0.03248547 124 225 27
0.66910899 0.64254689 -0.040376939 124 225 27
0.6902957 0.63688517 -0.035514195 124 225 27
0.71588552 0.63508737 -0.043388076 124 225 27
0.66759413 0.65588379 -0.034091987 124 225 27
0.68577611 0.65993434 -0.036413703 124 225 27
0.66637278 0.68739271 -0.036405221 124 225 27
0.68531001 0.6847142 -0.045879811 124 225 27
0.70472175 0.695759 -0.046062689 124 225 27
0.66638029 0.71158725 -0.03495615 124 225 27
0.68419075 0.71056217 -0.04111084 124 225 27
0.7047416 0.70961595 -0.047596559 124 225 27
0.66467685 0.73633701 -0.035518989 124 225 27
0.68159479 0.73525125 -0.036446869 124 225 27
0.70302236 0.73282111 -0.041691262 124 225 27
0.66024184 0.76489305 -0.041261841 124 225 27
0.67829585 0.75948632 -0.035431087 124 225 27
0.64830315 0.78820413 -0.03324607 124 225 27
0.66017741 0.79088706 -0.037041109 124 225 27
0.68349713 0.78574651 -0.04376366 255 0 0
0.64381099 0.8159861 -0.036739118 124 225 27
0.66347164 0.8171041 -0.038195468 124 225 27
0.64314502 0.84007257 -0.033213511 124 225 27
0.6615777 0.84625709 -0.045984626 124 225 27
0.69024032 0.829808 -0.041722234 124 225 27
0.64052719 0.86490369 -0.036591437 124 225 27
0.66810167 0.86699408 -0.043271102 124 225 27
0.68580651 0.86864066 -0.031742528 124 225 27
0.64196926 0.88666135 -0.040386409 124 225 27
0.66065741 0.89005691 -0.041488886 124 225 27
0.68539351 0.88367987 -0.045950692 124 225 27
0.63441515 0.91510981 -0.036144551 124 225 27
0.65882003 0.91324455 -0.037346713 124 225 27
0.68419248 0.90565181 -0.044488125 124 225 27
0.62267423 0.94484377 -0.031450216 124 225 27
0.63178158 0.93243676 -0.03458428 124 225 27
0.65851879 0.9285512 -0.041921236 124 225 27
0.6797893 0.9376139 -0.038528457 124 225 27
0.62209582 0.96358836 -0.038633268 124 225 27
0.63060361 0.96561432 -0.039708383 124 225 27
0.66035831 0.95340419 -0.04737784 124 225 27
0.6179685 0.98260832 -0.028316071 124 225 27
0.6285671 0.98601907 -0.047340028 124 225 27
0.67480868 0.99423385 -0.048809603 124 225 27
0.67500412 0.98201627 -0.047528803 124 225 27
0.61719793 1.019208 -0.045540035 124 225 27
0.66035956 1.0111421 -0.040697083 255 0 0
0.70144379 1.0156213 -0.02508837 124 225 27
0.61828315 1.0374951 -0.043172099 124 225 27
0.66348052 1.0375882 -0.044833746 255 0 0
0.60559332 1.0731361 -0.0400053 255 0 0
0.66432756 1.053335 -0.044236243 255 0 0
0.69787943 1.064559 -0.031080723 124 225 27
0.60791868 1.0902575 -0.038931631 255 0 0
0.64051908 1.0959424 -0.040000107 255 0 0
0.66400635 1.0862262 -0.031584762 255 0 0
0.68441075 1.091704 -0.036852986 255 0 0
0.59764218 1.1044905 -0.042628057 255 0 0
0.60333771 1.1151365 -0.040005453 255 0 0
0.65391386 1.1072087 -0.033193987 124 225 27
0.59570378 1.1456357 -0.046864457 255 0 0
0.60201925 1.1341771 -0.044472858 255 0 0
0.65249264 1.1309936 -0.041629791 255 0 0
0.58867502 1.1582801 -0.03465604 255 0 0
0.61719584 1.202369 -0.048118338 255 0 0
0.63395333 1.2135346 -0.027810067 255 0 0
0.64018226 1.236207 -0.028636545 255 0 0
0.67238545 1.2368023 -0.036559876 255 0 0
0.62334859 1.2705278 -0.033165812 255 0 0
0.63633573 1.2621442 -0.030076459 255 0 0
0.66877282 1.262815 -0.033291396 255 0 0
0.62178373 1.2770038 -0.034099326 255 0 0
0.62587863 1.2954128 -0.046962872 255 0 0
0.66725254 1.2904265 -0.038240116 255 0 0
0.61448014 1.3114672 -0.028698642 82 42 179
0.62644422 1.3135277 -0.030546963 82 42 179
0.61496699 1.3450403 -0.033876806 82 42 179
0.62926996 1.3326252 -0.037993141 82 42 179
0.65587348 1.3349493 -0.029553667 255 0 0
0.61390895 1.3642067 -0.034129471 82 42 179
0.5931893 1.4208407 -0.033051752 82 42 179
0.61254126 1.4131789 -0.041141227 82 42 179
0.59461099 1.4344766 -0.029112451 82 42 179
0.60631478 1.4359617 -0.033694223 82 42 179
0.60572642 1.46049 -0.04602915 82 42 179
0.58827138 -0.39070857 -0.022542894 255 0 0
0.60560852 -0.3830573 -0.0046660304 255 0 0
0.64112318 -0.38388562 -0.015045494 255 0 0
0.65428656 -0.38473028 -0.0080550937 255 0 0
0.68740994 -0.38721526 -0.0079128286 255 0 0
0.70148104 -0.38546664 -0.0023282664 255 0 0
0.67104125 -0.35628706 -0.018366221 255 0 0
0.67623997 -0.35846591 -0.013115645 255 0 0
0.65981495 -0.32582057 -0.023282308 255 0 0
0.679407 -0.33864945 -0.018366072 255 0 0
0.70110351 -0.33024758 -0.00031906366 255 0 0
0.66207516 -0.30961162 -0.013891178 255 0 0
0.6661002 -0.29668629 -0.01342091 255 0 0
0.68107504 -0.28545922 -0.0032230169 255 0 0
0.69398326 -0.26826665 -0.012671128 143 14 150
0.78119856 -0.26848 -0.0067755589 155 76 93
0.68887752 -0.23864393 -0.013572371 143 14 150
0.71544576 -0.23466496 -0.0125351 143 14 150
0.73026597 -0.23105271 -0.016751792 143 14 150
0.73651433 -0.21268162 -0.018907147 255 0 0
0.75977945 -0.20996639 -0.012127514 255 0 0
0.74147004 -0.19447906 -0.022056453 255 0 0
0.76868165 -0.18918812 -0.010766855 255 0 0
0.78008068 -0.18931866 -0.011425747 255 0 0
0.80548364 -0.17735897 -0.0043646395 155 76 93
0.77403665 -0.16735047 -0.018200964 255 0 0
0.78473842 -0.17465255 -0.0051126182 155 76 93
0.67078936 -0.12881047 -0.017165679 255 0 0
0.76832342 -0.13439405 -0.0060535055 155 76 93
0.66195351 -0.11401837 -0.019754801 155 76 93
0.68235803 -0.12372886 -0.022310436 255 0 0
0.64916331 -0.07500498 -0.0010874048 155 76 93
0.66093171 -0.086737685 -0.0090946825 155 76 93
0.67561412 -0.093392953 -0.012423143 255 0 0
0.64696848 -0.057474792 -0.0069202692 155 76 93
0.662081 -0.063844539 -0.015279127 155 76 93
0.64054716 -0.04046011 -0.012022775 155 76 93
0.65828234 -0.041901074 -0.012353856 155 76 93
0.64184052 -0.013139841 -0.0150708 155 76 93
0.65723395 -0.00776598 -0.0092175454 155 76 93
0.63878274 0.016420443 -0.016459132 155 76 93
0.65665132 0.011918523 -0.011973063 155 76 93
0.64315486 0.040019669 -0.012202275 155 76 93
0.65387172 0.036204036 -0.011100817 155 76 93
0.64309108 0.064199425 -0.019554988 155 76 93
0.65512657 0.059519377 -0.0071099587 155 76 93
0.64242649 0.089362547 -0.014420917 155 76 93
0.65745246 0.088803954 -0.011977241 255 0 0
0.75416076 0.095480621 -0.013040274 124 225 27
0.64040804 0.10448937 -0.020070843 155 76 93
0.6597662 0.12113804 -0.011058167 255 0 0
0.76442403 0.11516488 -0.0090007111 124 225 27
0.77604586 0.12188193 -0.016492441 124 225 27
0.76575357 0.13591592 -0.0050978363 124 225 27
1.4505311 0.12504256 -0.022465661 255 0 0
1.5845392 0.13652351 -0.024264187 255 0 0
0.74163288 0.16412342 -0.012312566 124 225 27
0.75682515 0.15914568 -0.0083937254 124 225 27
0.7407217 0.18477893 -0.018336475 124 225 27
0.7548781 0.1908946 -0.01462527 124 225 27
0.71839207 0.22075784 -0.0081057427 124 225 27
0.73580509 0.21192893 -0.011042217 124 225 27
0.75309253 0.20706816 -0.011630591 124 225 27
0.71773547 0.22911051 -0.010701355 124 225 27
0.73247313 0.2376426 -0.010909619 124 225 27
0.75226712 0.23666954 -0.0014033616 124 225 27
0.71998906 0.25680649 -0.013145186 124 225 27
0.73427194 0.264768 -0.014160167 124 225 27
0.71712565 0.28656432 -0.0099770725 124 225 27
0.73458403 0.28864381 -0.012206363 124 225 27
0.71604234 0.31839895 -0.011264522 124 225 27
0.73240376 0.31055951 -0.015763426 124 225 27
0.7183947 0.34273219 -0.016226327 124 225 27
0.72914165 0.33833241 -0.012203312 124 225 27
0.71428627 0.35782322 -0.017231379 124 225 27
0.72795928 0.36363497 -0.023124889 124 225 27
0.71437228 0.39187264 -0.01344913 124 225 27
0.72772837 0.38223037 -0.01496243 124 225 27
0.65308487 0.40146276 -0.0043894649 255 0 0
0.7110675 0.4135541 -0.013514441 124 225 27
0.72505713 0.40376106 -0.014458925 124 225 27
0.69801545 0.43921006 -0.014363915 124 225 27
0.7110374 0.43862292 -0.0075115366 124 225 27
0.69658458 0.46265778 -0.01562663 124 225 27
0.70651305 0.461366 -0.010673265 124 225 27
0.74189913 0.46508706 -0.015135929 124 225 27
0.69483298 0.48633739 -0.0096805729 124 225 27
0.70797926 0.48166856 -0.011174455 124 225 27
0.73623627 0.48763633 -0.0067508942 255 0 0
0.69080245 0.51696646 -0.0101462 124 225 27
0.70852584 0.51562476 -0.011456815 124 225 27
0.7321955 0.51073533 -0.00674868 124 225 27
0.6938355 0.53644675 -0.008852018 124 225 27
0.70617402 0.53800869 -0.010122284 124 225 27
0.7293148 0.53774512 -0.0099044722 124 225 27
0.68543935 0.55955291 -0.010292601 124 225 27
0.70476502 0.56404209 -0.016388699 124 225 27
0.72862053 0.55570173 -0.020396054 124 225 27
0.68388569 0.58584553 -0.014237947 124 225 27
0.71169585 0.59253544 -0.013363496 124 225 27
0.67360371 0.60679555 -0.0029863715 124 225 27
0.69132739 0.61574036 -0.015378376 124 225 27
0.71932739 0.60657191 -0.015306577 124 225 27
0.66976887 0.63921791 -0.017576363 124 225 27
0.68469465 0.63667947 -0.014460474 124 225 27
0.71523523 0.63253033 -0.0070395395 124 225 27
0.67050594 0.66381556 -0.013183005 124 225 27
0.68355697 0.66234547 -0.01085659 255 0 0
0.70813942 0.6698513 -0.017381174 255 0 0
0.66374749 0.69166166 -0.014440176 124 225 27
0.68196225 0.68582118 -0.011470893 124 225 27
0.70501769 0.69113004 -0.010410165 255 0 0
0.66380847 0.71721607 -0.013646376 124 225 27
0.67930055 0.71364856 -0.012050117 124 225 27
0.70365334 0.70182306 -0.015468203 255 0 0
0.64882231 0.74796635 -0.0041826814 124 225 27
0.65892011 0.73204583 -0.014389056 255 0 0
0.64872807 0.76056117 -0.01248296 124 225 27
0.65900576 0.77076536 -0.024678245 124 225 27
0.68763012 0.76304418 -0.015080889 255 0 0
0.64352584 0.79969376 -0.016285673 124 225 27
0.65471935 0.78261995 -0.019203123 124 225 27
0.69133258 0.77852833 -0.010412443 124 225 27
0.63741982 0.81927896 -0.015353918 124 225 27
0.6523056 0.80473137 -0.020409748 124 225 27
0.68995869 0.80301392 -0.021664433 124 225 27
0.70251858 0.80738974 -0.0031351671 124 225 27
0.63587242 0.83877736 -0.010577366 124 225 27
0.66797543 0.82852113 -0.021524377 124 225 27
0.68803322 0.83696496 -0.0058379117 124 225 27
0.64089024 0.86326402 -0.017923525 124 225 27
0.66483247 0.86133873 -0.023104757 124 225 27
0.68404478 0.86158609 -0.008528091 255 0 0
0.70541954 0.87136793 -0.0066036982 124 225 27
0.63196689 0.88285571 -0.017023435 124 225 27
0.67805421 0.89583558 -0.015097842 124 225 27
0.70015275 0.88841337 -0.016257763 124 225 27
0.62619507 0.91551793 -0.018791556 124 225 27
0.68816257 0.91712868 -0.0082302159 124 225 27
0.62384689 0.93219382 -0.020869344 124 225 27
0.67429024 0.93118781 -0.013236865 255 0 0
0.68324363 0.93736279 -0.01595208 124 225 27
0.67388415 0.96120852 -0.016175702 255 0 0
0.68897873 0.96381766 -0.011302993 124 225 27
0.70500803 0.96668375 -0.019096017 124 225 27
0.67154968 0.97746456 -0.014809988 124 225 27
0.69882452 0.97963274 -0.0076827258 124 225 27
0.61401755 1.007158 -0.022236988 124 225 27
0.66316235 1.0106667 -0.0062060179 124 225 27
0.69985425 1.0083238 -0.017564982 124 225 27
0.71000218 1.0082188 -0.0027501062 124 225 27
0.66257405 1.034651 -0.01161316 124 225 27
0.6959545 1.0396192 -0.014712662 124 225 27
0.70797592 1.0404809 -0.0029506236 124 225 27
0.65988761 1.0586975 -0.014708231 255 0 0
0.69403702 1.0586681 -0.015399683 124 225 27
0.59577042 1.0994334 -0.023858398 124 225 27
0.60107523 1.0949556 -0.0082802027 124 225 27
0.65984505 1.0786418 -0.0085140914 255 0 0
0.59361547 1.1124756 -0.014011284 255 0 0
0.61311281 1.1126018 -0.009483248 124 225 27
0.64026117 1.1097916 -0.012609538 124 225 27
0.66619229 1.1054614 -0.019118808 124 225 27
0.58860654 1.1370518 -0.011308436 124 225 27
0.64433265 1.1433223 -0.014402263 255 0 0
0.58641911 1.1531425 -0.015867576 255 0 0
0.63896924 1.1934005 -0.011797264 255 0 0
0.67488438 1.1970773 -0.013663784 255 0 0
0.61893409 1.2213866 -0.00045691431 255 0 0
0.63456148 1.2135717 -0.017850202 255 0 0
0.67380977 1.216855 -0.015641376 255 0 0
0.68174148 1.2236935 -0.0084570348 255 0 0
0.61988962 1.2327328 -0.0091853738 255 0 0
0.63084912 1.2408955 -0.015269188 255 0 0
0.68542492 1.2344612 -0.002306059 255 0 0
0.62141681 1.2557951 -0.018857062 255 0 0
0.62881476 1.2639835 -0.014737494 255 0 0
0.66542488 1.2657607 -0.021577582 255 0 0
0.67923725 1.2685045 -0.0065023601 255 0 0
0.61322659 1.2953639 -0.024218097 82 42 179
0.67344576 1.2804223 -0.015065506 255 0 0
0.62567621 1.3069369 -0.023924515 82 42 179
0.66238922 1.3135371 -0.020107642 255 0 0
0.60703784 1.337991 -0.022627831 82 42 179
0.61406583 1.358676 -0.015886754 82 42 179
0.6706748 1.3521504 -0.0090312958 82 42 179
0.59761345 1.3940074 -0.022903711 82 42 179
0.59148097 1.4108557 -0.016843682 82 42 179
0.5865202 1.4271026 -0.0047938526 82 42 179
0.59695864 -0.38285676 0.0044275671 255 0 0
0.61297005 -0.38073117 0.007265389 255 0 0
0.6395849 -0.37739092 0.017684966 255 0 0
0.65985394 -0.37657309 0.015830219 255 0 0
0.69621587 -0.39109322 0.022137692 255 0 0
0.70510828 -0.3872126 0.019697651 255 0 0
0.69234896 -0.35938644 0.011120959 255 0 0
0.70870674 -0.36490035 0.016760251 255 0 0
0.68724918 -0.33932105 0.011181002 255 0 0
0.70856375 -0.32742849 0.011284381 255 0 0
0.78219223 -0.33617553 0.017444618 255 0 0
0.70933688 -0.31369531 0.012138342 255 0 0
0.78419662 -0.31232107 0.011523803 255 0 0
0.68725657 -0.2953715 0.0021279976 255 0 0
0.77359593 -0.27823228 0.017876938 255 0 0
0.78015494 -0.28608519 0.0095427874 255 0 0
0.77097583 -0.26877433 0.022393942 255 0 0
0.77567732 -0.26706547 0.017706566 155 76 93
0.7100563 -0.23822467 0.002747491 143 14 150
0.76900065 -0.23162298 0.0085151922 255 0 0
0.77961302 -0.23897018 0.0093436511 255 0 0
0.80404919 -0.23613176 0.014106691 155 76 93
0.76677871 -0.21416229 0.014251018 255 0 0
0.78801471 -0.21854004 0.0049222261 155 76 93
0.80454123 -0.21484864 0.0069014728 155 76 93
0.7674861 -0.18464042 0.011292917 155 76 93
0.7968719 -0.17977905 0.0065901875 155 76 93
0.80070114 -0.19611414 0.021793246 155 76 93
0.76426083 -0.15627807 0.014539327 155 76 93
0.7841512 -0.16288193 0.013656313 155 76 93
0.75861859 -0.13868484 0.015961906 155 76 93
0.77748001 -0.13982548 0.016006371 155 76 93
0.75494593 -0.10625515 0.024078984 155 76 93
0.66302264 -0.079122096 0.006784176 255 0 0
0.75171345 -0.076014787 0.018170666 255 0 0
0.64863533 -0.054210864 0.0093981223 155 76 93
0.66565943 -0.062407494 0.0043543479 255 0 0
0.66086787 -0.036479246 0.0079518054 255 0 0
0.64377904 -0.015414415 0.012137944 155 76 93
0.65986156 -0.012558529 0.013120858 255 0 0
0.65793717 0.01029025 0.010893604 255 0 0
0.65582192 0.03965129 0.011705842 255 0 0
0.77024311 0.044662923 0.023040794 124 225 27
0.64639056 0.059605509 0.0043941909 155 76 93
0.65509331 0.063215226 0.012396356 255 0 0
0.6551404 0.079318494 0.0033478707 255 0 0
0.73582584 0.087497413 0.021689426 124 225 27
0.76052696 0.088997841 0.012690949 124 225 27
0.7393012 0.10948294 0.017763931 124 225 27
0.75592983 0.11401694 0.015773464 124 225 27
0.74282795 0.13933763 0.014662538 124 225 27
0.75429267 0.13915303 0.008493281 124 225 27
0.73820323 0.16023456 0.018306915 124 225 27
0.7560786 0.15918088 0.0081980303 124 225 27
0.72299975 0.19421923 0.024851482 124 225 27
0.74102724 0.18833441 0.013677529 124 225 27
0.75318289 0.19145966 0.0067661158 124 225 27
0.71142894 0.21681051 0.016211413 124 225 27
0.73713142 0.21231396 0.010605369 124 225 27
0.75253761 0.20487437 0.011946715 124 225 27
0.71792966 0.23521125 0.015420899 124 225 27
0.73885798 0.23674417 0.011957276 124 225 27
0.71314538 0.26443344 0.014410966 124 225 27
0.73214883 0.26178503 0.012155443 124 225 27
0.71444213 0.28704923 0.015557609 124 225 27
0.7279489 0.2855069 0.0096472204 124 225 27
0.69765544 0.3093994 0.018899275 124 225 27
0.71466154 0.31394371 0.014575692 124 225 27
0.71366143 0.33726108 0.01431335 124 225 27
0.86840385 0.34971431 0.020861238 255 0 0
0.71467382 0.36334112 0.012434813 124 225 27
0.71102357 0.38538185 0.011887181 124 225 27
0.72580695 0.38995898 0.0055147335 124 225 27
0.64269209 0.40832102 0.0016436577 124 225 27
0.69136369 0.41684619 0.016714901 255 0 0
0.7115435 0.41265374 0.017398307 255 0 0
0.69636333 0.43735951 0.014452497 124 225 27
0.71007866 0.43536502 0.013867598 124 225 27
0.69603992 0.45844361 0.015294577 124 225 27
0.70650899 0.46184474 0.013825927 124 225 27
0.69271898 0.49048945 0.013382642 124 225 27
0.70309901 0.49203846 0.014206371 124 225 27
0.73430198 0.47748584 0.011058465 255 0 0
0.68910939 0.51233023 0.014076136 124 225 27
0.70283514 0.50002468 0.019595101 124 225 27
0.73048103 0.50833392 0.011221632 255 0 0
0.77734017 0.51504248 0.02404274 124 225 27
0.68319523 0.53926778 0.011589531 124 225 27
0.70094788 0.53181809 0.010827 124 225 27
0.67257422 0.56878161 0.023719043 124 225 27
0.69052309 0.56253409 0.011566523 124 225 27
0.71589285 0.56557071 0.0090883914 255 0 0
0.67121899 0.5999521 0.0087229162 255 0 0
0.68845981 0.58779609 0.0069277687 124 225 27
0.71606737 0.59254527 0.0028322041 255 0 0
0.7365191 0.57615453 0.022291631 255 0 0
0.66883874 0.60815835 0.014096528 255 0 0
0.682827 0.61587203 0.00026354194 124 225 27
0.73418438 0.61933398 0.024762124 124 225 27
0.66405553 0.63939428 0.0053302497 124 225 27
0.68758488 0.63598102 0.0043839812 124 225 27
0.71069598 0.63681698 0.0033791512 124 225 27
0.72590566 0.63528317 0.017807581 124 225 27
0.66428447 0.6587007 0.0071197553 255 0 0
0.68173504 0.65671325 0.0023612827 255 0 0
0.70737112 0.66743541 0.021195263 124 225 27
0.7346943 0.66312224 0.019130617 124 225 27
0.75480908 0.66258645 0.018562056 124 225 27
0.65964592 0.67975724 0.0075305924 124 225 27
0.70667648 0.68763131 0.0055565811 124 225 27
0.72780263 0.68167609 0.017433777 255 0 0
0.71973622 0.71671844 0.012594508 124 225 27
0.73775423 0.72149169 0.016548365 124 225 27
0.64899671 0.74362016 0.0010415837 124 225 27
0.65061182 0.73238808 0.0012034923 124 225 27
0.71558177 0.73351735 0.018593114 124 225 27
0.72547084 0.72748244 0.019935995 124 225 27
0.6492607 0.7546559 0.0012344122 124 225 27
0.7076931 0.76300204 0.009650385 124 225 27
0.7322762 0.76065183 0.020663068 124 225 27
0.64347416 0.78962266 0.0015273392 124 225 27
0.69229859 0.78918809 0.020345058 124 225 27
0.71292609 0.79257745 0.011761261 124 225 27
0.69549829 0.81288254 0.014004659 124 225 27
0.71180063 0.8113271 0.011474025 124 225 27
0.73283303 0.81598616 0.018926516 124 225 27
0.68788052 0.84163612 0.014348296 124 225 27
0.71086872 0.83261824 0.0087875724 124 225 27
0.73045748 0.84015644 0.016291592 124 225 27
0.68581915 0.86377746 0.016678441 124 225 27
0.70725191 0.85546631 0.0092479289 124 225 27
0.67400157 0.88288832 0.015501253 124 225 27
0.68169755 0.88837808 0.0097333826 124 225 27
0.71073925 0.88288069 0.0072687045 124 225 27
0.67019844 0.91424549 0.014940023 124 225 27
0.68327212 0.91535872 0.011701223 124 225 27
0.70126987 0.91695756 0.0065498352 124 225 27
0.66440761 0.93705696 0.020493768 255 0 0
0.68463171 0.93652499 0.010554446 255 0 0
0.71915692 0.94240427 0.017359845 124 225 27
0.66502726 0.96540111 0.010556875 124 225 27
0.6865387 0.96655053 0.010530783 124 225 27
0.71072483 0.96266961 0.012555523 255 0 0
0.66173595 0.98838294 0.013398696 255 0 0
0.6829443 0.98009723 0.002043888 255 0 0
0.71381545 0.9956584 0.01472342 124 225 27
0.64893496 1.0198741 0.014621407 124 225 27
0.65877855 1.0113728 0.012906888 255 0 0
0.68807334 1.0193995 0.0066192895 124 225 27
0.71084738 1.0103066 0.00972642 124 225 27
0.64505541 1.0376469 0.019319549 124 225 27
0.66001463 1.048221 0.0012227446 124 225 27
0.7075789 1.0355214 0.0099819675 124 225 27
0.64523798 1.0671029 0.013761896 255 0 0
0.65308708 1.0595225 0.009816844 124 225 27
0.64427793 1.0837144 0.011347382 124 225 27
0.66326183 1.0886247 0.013453464 124 225 27
0.67694151 1.0885212 0.0099924831 124 225 27
0.58637238 1.1087228 0.013297757 124 225 27
0.6205647 1.1144555 0.0098971203 124 225 27
0.63790262 1.104368 0.011854252 124 225 27
0.66933978 1.1019487 0.0071240366 124 225 27
0.57466626 1.1452941 0.014826387 255 0 0
0.57988203 1.1353315 0.00017651916 255 0 0
0.57146108 1.1531199 0.014928147 255 0 0
0.61820322 1.1980935 0.014969468 255 0 0
0.63419902 1.1907916 0.0046350211 255 0 0
0.68709749 1.1909096 0.0050012954 255 0 0
0.62029225 1.2147483 0.00040844083 255 0 0
0.68582892 1.2078598 0.0064669698 255 0 0
0.61161786 1.2414615 0.01323159 255 0 0
0.67712384 1.2325168 0.021614529 255 0 0
0.61282253 1.2544096 0.0124458 255 0 0
0.67300582 1.2673405 0.014638595 82 42 179
0.67138493 1.2806849 0.016356647 82 42 179
0.60376894 1.3131485 0.01208657 255 0 0
0.667822 1.316879 0.012582704 82 42 179
0.59552604 1.3429798 0.020841956 255 0 0
0.66419035 1.3423808 0.0096949041 255 0 0
0.59666431 1.3553028 0.016940922 255 0 0
0.65798485 1.3521886 0.013852857 255 0 0
0.59036541 1.387051 0.0093780812 255 0 0
0.57996154 1.4180204 0.017459914 255 0 0
0.62077951 -0.37783778 0.027787715 255 0 0
0.63402462 -0.38467866 0.026636768 255 0 0
0.65319157 -0.37885922 0.043173935 255 0 0
0.69703054 -0.38993713 0.03555375 255 0 0
0.70096648 -0.37792006 0.030135661 255 0 0
0.69683766 -0.36498976 0.035344955 255 0 0
0.7001968 -0.35726547 0.045936346 124 225 27
0.72676426 -0.36043179 0.030773416 255 0 0
0.69599378 -0.3401334 0.04058519 255 0 0
0.72205853 -0.33934623 0.030613564 124 225 27
0.78091449 -0.33080494 0.03841009 255 0 0
0.69309801 -0.31475258 0.038703308 255 0 0
0.71696341 -0.30479902 0.040414333 255 0 0
0.78699183 -0.3133536 0.038229872 255 0 0
0.77132338 -0.29621461 0.044670694 255 0 0
0.78076023 -0.29069275 0.046889611 255 0 0
0.80830061 -0.29021215 0.03769888 124 225 27
0.78173304 -0.2636314 0.040535588 124 225 27
0.80125833 -0.267189 0.041519836 124 225 27
0.76768988 -0.24086027 0.031744156 155 76 93
0.78069246 -0.23614895 0.040804043 124 225 27
0.76141739 -0.21844883 0.041599959 124 225 27
0.78795946 -0.20851883 0.034336239 124 225 27
0.76527691 -0.18296084 0.040267199 124 225 27
0.78384894 -0.18835829 0.037826892 124 225 27
0.77198684 -0.16799529 0.035573058 124 225 27
0.78875321 -0.16818362 0.038621273 124 225 27
0.74874258 -0.14183649 0.047297269 124 225 27
0.76534122 -0.13917445 0.040075913 124 225 27
0.78544003 -0.14194909 0.037804641 124 225 27
0.74863988 -0.11497352 0.041573964 124 225 27
0.76182103 -0.11872175 0.03991273 124 225 27
0.77720004 -0.11589062 0.041280139 124 225 27
0.74493819 -0.082044356 0.041570678 124 225 27
0.77366537 -0.093389988 0.042049602 124 225 27
0.77606213 -0.097451031 0.043124214 124 225 27
0.74609709 -0.052095443 0.030027296 255 0 0
0.66368449 -0.031890646 0.026151597 255 0 0
0.74587995 -0.046112575 0.030061204 255 0 0
0.77428085 -0.026552141 0.045987122 124 225 27
0.66576374 -0.016905308 0.025112674 255 0 0
0.73967952 -0.016602561 0.03977944 155 76 93
0.66598457 0.021909058 0.026413083 255 0 0
0.73576862 0.01869721 0.041787144 155 76 93
0.76986802 0.0066894591 0.038242847 124 225 27
0.66503501 0.028808206 0.025344074 255 0 0
0.73471969 0.038375497 0.041849613 124 225 27
0.75303584 0.029828111 0.047615349 124 225 27
0.73858231 0.064621672 0.042676024 124 225 27
0.75702018 0.05840455 0.039353844 124 225 27
0.74520922 0.089188084 0.043700583 124 225 27
0.75380206 0.07909508 0.034012929 124 225 27
0.72419268 0.12019757 0.047642902 124 225 27
0.74040121 0.11369952 0.038184781 124 225 27
0.75114971 0.12082104 0.028215397 124 225 27
0.74411929 0.13601729 0.039103795 124 225 27
0.75714654 0.13750544 0.03670191 124 225 27
0.73933595 0.16149361 0.037593823 124 225 27
0.75594068 0.15623935 0.03373038 124 225 27
0.7207253 0.18212996 0.035974808 124 225 27
0.73799485 0.1864787 0.032226913 124 225 27
0.69518036 0.21686225 0.038197108 124 225 27
0.70921761 0.21455297 0.035061486 124 225 27
0.73410344 0.2132487 0.035507519 124 225 27
0.71120805 0.23823336 0.039046504 124 225 27
0.740242 0.2391558 0.036311433 124 225 27
0.69954681 0.27321509 0.038119212 124 225 27
0.71595448 0.25932413 0.038742475 124 225 27
0.72848821 0.26103479 0.035894088 124 225 27
0.6952706 0.29042399 0.038426243 124 225 27
0.71263343 0.28668308 0.035026111 124 225 27
0.72618657 0.28141314 0.02693367 124 225 27
0.69592214 0.3117322 0.041514896 124 225 27
0.71326107 0.31518552 0.033299793 124 225 27
0.69664782 0.33336982 0.039570469 124 225 27
0.70816338 0.34180164 0.037949651 124 225 27
0.69699615 0.36055794 0.039832789 124 225 27
0.70813572 0.35997945 0.033848323 124 225 27
0.87199992 0.3518894 0.035763949 255 0 0
0.6956405 0.38786468 0.037059296 124 225 27
0.71253526 0.39786768 0.033409737 255 0 0
0.69751787 0.41939253 0.035705656 124 225 27
0.70803463 0.4066782 0.03496179 255 0 0
0.69743049 0.43436289 0.029120684 255 0 0
0.70918655 0.42767045 0.031123554 124 225 27
0.74674869 0.44084018 0.047172252 255 0 0
0.6897707 0.462488 0.031598985 255 0 0
0.70677692 0.45033985 0.031613618 255 0 0
0.74496222 0.4541958 0.046608306 255 0 0
0.7533834 0.46165049 0.045966171 255 0 0
0.7845729 0.46096146 0.039416276 255 0 0
0.69179559 0.4877812 0.032061309 255 0 0
0.74222016 0.49073324 0.040272005 255 0 0
0.75333297 0.4871493 0.04568553 124 225 27
0.78298497 0.48082095 0.037249133 124 225 27
0.68144548 0.51085389 0.03204909 124 225 27
0.73346728 0.52163506 0.04610746 255 0 0
0.77429616 0.50668722 0.048560202 124 225 27
0.77897209 0.50395435 0.03140159 124 225 27
0.67647231 0.54987282 0.02788128 124 225 27
0.73693132 0.54208195 0.039738089 255 0 0
0.73649812 0.56429344 0.042366289 255 0 0
0.76833761 0.56313419 0.030171163 124 225 27
0.73704356 0.59155077 0.038158868 124 225 27
0.7666741 0.58618677 0.027690575 124 225 27
0.71968526 0.61634195 0.037222132 255 0 0
0.73445469 0.6091823 0.03670634 124 225 27
0.7587108 0.61296791 0.04088968 124 225 27
0.71898723 0.64088309 0.039978053 124 225 27
0.73270476 0.63488472 0.034047838 124 225 27
0.75678182 0.63496947 0.037704065 124 225 27
0.71555001 0.66290396 0.040625226 124 225 27
0.73025709 0.66122264 0.030247226 124 225 27
0.69931388 0.68369693 0.049244016 124 225 27
0.7156269 0.68426603 0.037850194 124 225 27
0.73796427 0.68958241 0.032779057 124 225 27
0.69951552 0.71446967 0.030497819 124 225 27
0.71022445 0.71241832 0.034743574 124 225 27
0.74104828 0.71147704 0.046209164 124 225 27
0.69184822 0.74055123 0.046482328 255 0 0
0.70892727 0.73781818 0.033578124 124 225 27
0.73905754 0.72541875 0.046624005 124 225 27
0.6893 0.76211953 0.042859234 255 0 0
0.70426446 0.76505387 0.042151615 124 225 27
0.73310059 0.76373947 0.042084575 124 225 27
0.6891616 0.78651381 0.041784804 124 225 27
0.72521585 0.79733729 0.049790964 124 225 27
0.68565392 0.81329393 0.032764778 124 225 27
0.7103951 0.81241006 0.038259588 124 225 27
0.7299518 0.81091547 0.031166181 124 225 27
0.66895497 0.84335244 0.047110885 124 225 27
0.6845991 0.83643728 0.037300076 124 225 27
0.71774822 0.83679312 0.038042881 124 225 27
0.67154789 0.86064434 0.031037103 124 225 27
0.69140846 0.86591351 0.031919785 124 225 27
0.72199422 0.8747322 0.030139729 124 225 27
0.72672635 0.85638934 0.026489429 124 225 27
0.66985339 0.88842165 0.037620246 124 225 27
0.68080682 0.88864875 0.038912043 124 225 27
0.71844357 0.89098966 0.032132711 124 225 27
0.66408557 0.91418093 0.034525141 124 225 27
0.68594474 0.91984767 0.035838243 124 225 27
0.66271305 0.93287563 0.037253525 124 225 27
0.69011766 0.94003057 0.029369146 255 0 0
0.64507973 0.96444178 0.044247389 124 225 27
0.65748417 0.95849955 0.028980043 124 225 27
0.68905616 0.96582764 0.036902972 124 225 27
0.70878834 0.97415996 0.037465557 124 225 27
0.64765441 0.9848659 0.043255575 124 225 27
0.65698993 0.98337209 0.035419539 124 225 27
0.68359387 0.99888659 0.035480917 124 225 27
0.70881027 0.98030108 0.034860902 255 0 0
0.64550304 1.0069158 0.031357884 124 225 27
0.66052026 1.0038474 0.030004993 124 225 27
0.70310342 1.0231309 0.02898553 124 225 27
0.63902128 1.0376749 0.0407831 124 225 27
0.65538895 1.0328809 0.028510671 124 225 27
0.68885481 1.0348542 0.040343627 124 225 27
0.63568515 1.0598483 0.039573617 124 225 27
0.66902173 1.0707349 0.044690177 124 225 27
0.68392295 1.0678028 0.033307478 255 0 0
0.63635695 1.0874243 0.041640941 124 225 27
0.66747797 1.0920595 0.030814946 124 225 27
0.69411802 1.0859067 0.031169504 124 225 27
0.57315212 1.1141031 0.037536647 124 225 27
0.58261704 1.1126767 0.032247607 124 225 27
0.61583519 1.11484 0.03201659 124 225 27
0.6340605 1.10844 0.037095655 124 225 27
0.57050931 1.1388665 0.027283497 255 0 0
0.63451219 1.1430392 0.032322668 255 0 0
0.56222618 1.1561923 0.042145483 255 0 0
0.6119622 1.1983285 0.042659938 255 0 0
0.68083197 1.1878011 0.032437608 255 0 0
0.61155701 1.2085247 0.038503185 255 0 0
0.67535406 1.2135465 0.041741058 255 0 0
0.59878588 1.227898 0.047095567 255 0 0
0.60779583 1.239846 0.036233913 255 0 0
0.67263472 1.2366039 0.03715501 255 0 0
0.60534114 1.2640398 0.036029633 255 0 0
0.66939884 1.2617731 0.039690569 255 0 0
0.5981499 1.2895306 0.038644388 255 0 0
0.66612786 1.290807 0.036634952 255 0 0
0.59465748 1.3210104 0.035406992 255 0 0
0.66169667 1.3129761 0.040180489 255 0 0
0.58979243 1.3326236 0.036379904 255 0 0
0.65663415 1.3419275 0.044117428 255 0 0
0.58244371 1.365859 0.039520532 255 0 0
0.65201432 1.3607205 0.049990848 255 0 0
0.57394058 1.3981941 0.043461859 255 0 0
0.57616097 1.4188204 0.032928638 255 0 0
0.69551367 -0.40937185 0.066363975 255 0 0
0.6937747 -0.38842389 0.064282626 124 225 27
0.70168555 -0.38777429 0.068785816 124 225 27
0.69460583 -0.36946875 0.063825369 124 225 27
0.6907568 -0.33668393 0.066263936 124 225 27
0.70032233 -0.34379998 0.056636751 124 225 27
0.76601452 -0.33057392 0.065055475 255 0 0
0.69089764 -0.31247187 0.064282767 255 0 0
0.71343058 -0.31285632 0.060745884 255 0 0
0.76994008 -0.3078559 0.05355813 255 0 0
0.77910841 -0.30736017 0.063269012 124 225 27
0.80506867 -0.31347901 0.056491613 255 0 0
0.69303423 -0.29919666 0.053852856 255 0 0
0.7157048 -0.2988233 0.063570112 255 0 0
0.76451933 -0.2852053 0.060808603 124 225 27
0.78868097 -0.28392401 0.065369301 124 225 27
0.76368397 -0.2699998 0.059376027 124 225 27
0.79368305 -0.25497967 0.064589515 124 225 27
0.76109266 -0.23844671 0.069893286 124 225 27
0.79438752 -0.24396782 0.056896992 124 225 27
0.75775433 -0.20686364 0.060865685 124 225 27
0.7897675 -0.20379727 0.053037405 124 225 27
0.74653393 -0.17721473 0.070440695 124 225 27
0.76477116 -0.18623331 0.061859511 124 225 27
0.7837196 -0.19107334 0.065156437 124 225 27
0.74803036 -0.16852245 0.061813533 124 225 27
0.76209676 -0.16548631 0.063839853 124 225 27
0.78359926 -0.16171232 0.05723799 124 225 27
0.76123476 -0.14008513 0.061968818 124 225 27
0.77694392 -0.13754842 0.061623901 124 225 27
0.74433166 -0.12366935 0.058920268 124 225 27
0.76532793 -0.11872444 0.058075923 124 225 27
0.73692966 -0.081991948 0.064470179 124 225 27
0.75770247 -0.091001868 0.055793777 124 225 27
0.75996697 -0.065222219 0.063709699 124 225 27
0.75730819 -0.039424494 0.06285657 124 225 27
0.7437849 -0.014605557 0.064875677 124 225 27
0.75821579 -0.012860321 0.060809322 124 225 27
0.74071759 0.0086651891 0.0637808 124 225 27
0.75894636 0.013588841 0.06340114 124 225 27
0.74001443 0.040671576 0.057516016 124 225 27
0.75334209 0.038216282 0.067927636 124 225 27
0.72394741 0.058080185 0.070267543 124 225 27
0.74091327 0.059226882 0.065155976 124 225 27
0.7200079 0.083695009 0.070089839 124 225 27
0.74084091 0.089163326 0.062995926 124 225 27
0.7513966 0.075384066 0.056282237 124 225 27
0.7387985 0.11522478 0.059719324 124 225 27
0.72004962 0.13248833 0.066136964 124 225 27
0.73376423 0.14023769 0.061872482 124 225 27
0.71912098 0.16486685 0.062636085 124 225 27
0.73349571 0.16483852 0.062712312 124 225 27
0.7176919 0.18211177 0.056556057 124 225 27
0.73031938 0.18984269 0.059502587 124 225 27
0.69362426 0.21645215 0.063065238 124 225 27
0.7239362 0.21616584 0.07036873 124 225 27
0.72937763 0.20795517 0.062593155 124 225 27
0.69212264 0.23489712 0.064759746 124 225 27
0.7064476 0.23934776 0.057824612 124 225 27
0.72964704 0.23617941 0.061315067 124 225 27
0.69617271 0.25979897 0.064330854 124 225 27
0.71392989 0.26312989 0.059696 124 225 27
0.69249779 0.28889585 0.060735874 124 225 27
0.70758086 0.28809693 0.058515053 124 225 27
0.69246119 0.31351098 0.06710016 124 225 27
0.70331323 0.30928499 0.055942997 124 225 27
0.6893996 0.33410025 0.063642703 124 225 27
0.70375144 0.33519781 0.061269373 124 225 27
0.69213331 0.36017445 0.064615712 124 225 27
0.70109171 0.36315197 0.062913209 124 225 27
0.69075131 0.38923755 0.062155977 124 225 27
0.70512831 0.38668078 0.059658974 124 225 27
0.68921274 0.4122712 0.065893635 124 225 27
0.70114464 0.40721512 0.060830411 255 0 0
0.74587274 0.41597104 0.062702186 255 0 0
0.69029438 0.42693156 0.05910632 124 225 27
0.74219626 0.4410634 0.066733226 255 0 0
0.75326252 0.43875647 0.056551851 255 0 0
0.73982269 0.46618038 0.064629085 124 225 27
0.75380903 0.46079603 0.06084314 255 0 0
0.77701086 0.45771658 0.071580693 124 225 27
0.74080604 0.485818 0.05954168 255 0 0
0.76601911 0.48834807 0.063132152 124 225 27
0.73258656 0.51387274 0.058403399 255 0 0
0.7701298 0.50876319 0.059704371 124 225 27
0.71954358 0.53982031 0.066127844 124 225 27
0.73083431 0.53424019 0.061886735 124 225 27
0.76642525 0.53747249 0.056417897 124 225 27
0.7156322 0.56430554 0.066410735 124 225 27
0.73021078 0.56261939 0.066829056 124 225 27
0.7601983 0.5515821 0.072067574 124 225 27
0.7185787 0.58614182 0.061055362 124 225 27
0.72947615 0.58694267 0.066439264 124 225 27
0.75603479 0.58680826 0.060625095 124 225 27
0.71547312 0.61545885 0.060530543 124 225 27
0.72890913 0.612396 0.054901108 124 225 27
0.75274861 0.60642183 0.065803871 124 225 27
0.69356054 0.63208681 0.073716432 124 225 27
0.71349066 0.63818634 0.060725655 124 225 27
0.72748137 0.63614285 0.050675288 124 225 27
0.75104415 0.63175356 0.057209179 124 225 27
0.6931982 0.66429675 0.068434596 124 225 27
0.70962477 0.65710133 0.06364464 124 225 27
0.744223 0.6620878 0.063281201 124 225 27
0.68675613 0.69352293 0.071132839 124 225 27
0.70880771 0.6904434 0.062873095 124 225 27
0.74140799 0.69374728 0.055943862 124 225 27
0.68936765 0.71757555 0.060006589 124 225 27
0.7065624 0.71182883 0.059406273 124 225 27
0.6887638 0.73333043 0.062955454 124 225 27
0.70232362 0.73737425 0.063149586 124 225 27
0.73248333 0.73440993 0.074900016 124 225 27
0.68829644 0.76165694 0.065380372 124 225 27
0.7032364 0.75148654 0.059548646 124 225 27
0.72852212 0.763318 0.067068487 124 225 27
0.67035007 0.79699302 0.06273967 124 225 27
0.68970841 0.78122389 0.063566953 124 225 27
0.71272272 0.78905755 0.067042217 124 225 27
0.66722989 0.81710136 0.067464024 124 225 27
0.68815202 0.80789852 0.063655339 124 225 27
0.71660632 0.8105967 0.059269879 124 225 27
0.67001832 0.84412885 0.068086788 124 225 27
0.68514436 0.84089363 0.057136744 124 225 27
0.71885115 0.83485031 0.063576125 124 225 27
0.66680586 0.86605519 0.066691875 124 225 27
0.68303901 0.86171442 0.06297259 124 225 27
0.71652985 0.86535221 0.063641831 124 225 27
0.6597994 0.88673759 0.064809799 124 225 27
0.68665272 0.87825131 0.062427491 124 225 27
0.71355134 0.88280571 0.05846262 124 225 27
0.64597428 0.91190517 0.074360758 124 225 27
0.65656316 0.91423583 0.066118442 124 225 27
0.67876625 0.90792209 0.070849642 124 225 27
0.71095252 0.90828055 0.066075817 124 225 27
0.6587289 0.93227255 0.061568428 124 225 27
0.68565083 0.93538588 0.056387316 124 225 27
0.70744938 0.93860614 0.062821239 124 225 27
0.64543366 0.96255082 0.060623873 124 225 27
0.66358984 0.96420002 0.065460891 124 225 27
0.67933273 0.95656097 0.059287801 124 225 27
0.70256108 0.96519566 0.065720357 124 225 27
0.64419752 0.9841398 0.064724259 124 225 27
0.65096521 0.98980951 0.052005157 124 225 27
0.69899291 0.98196566 0.071780428 124 225 27
0.70302027 0.98763549 0.055791419 124 225 27
0.64451659 1.0094814 0.056448095 124 225 27
0.67137802 1.0093598 0.05842869 124 225 27
0.63436002 1.041049 0.059565574 124 225 27
0.66408813 1.0498021 0.07263574 124 225 27
0.69350493 1.0459902 0.063422382 124 225 27
0.6230408 1.0616096 0.071575135 124 225 27
0.62913191 1.0649118 0.061129574 124 225 27
0.66585219 1.0562129 0.058882892 124 225 27
0.69187564 1.0604777 0.061884291 124 225 27
0.61966956 1.0872598 0.066122845 124 225 27
0.63416702 1.0875918 0.0598596 124 225 27
0.6624676 1.0821488 0.055192396 124 225 27
0.67788815 1.0959345 0.063827664 124 225 27
0.56288171 1.1157894 0.067496628 124 225 27
0.59562147 1.1126714 0.062319383 124 225 27
0.61740446 1.1076702 0.066657096 124 225 27
0.63368738 1.1116688 0.065861225 124 225 27
0.56118393 1.1444738 0.066971123 255 0 0
0.62928516 1.1351795 0.053627051 255 0 0
0.55794621 1.1663806 0.067560829 255 0 0
0.59690654 1.212979 0.060736388 255 0 0
0.60082865 1.2155862 0.055399328 255 0 0
0.67199701 1.2100019 0.062206365 255 0 0
0.60029727 1.2380425 0.062358901 255 0 0
0.67030293 1.2319977 0.058022451 255 0 0
0.59486294 1.2656325 0.062690198 255 0 0
0.59027213 1.2937036 0.064211585 255 0 0
0.66225362 1.2878618 0.058093481 255 0 0
0.5881691 1.3052368 0.067162097 255 0 0
0.65995866 1.3142586 0.0555702 255 0 0
0.65484059 1.34296 0.058458254 255 0 0
0.57762748 1.3658758 0.066459611 255 0 0
0.65175515 1.3544288 0.05674918 255 0 0
0.57271075 1.3776976 0.07057181 255 0 0
0.57623327 1.380159 0.065146863 255 0 0
0.56500453 1.4180899 0.072089776 255 0 0
0.70442486 -0.45635629 0.086636692 124 225 27
0.69491416 -0.40363532 0.079011291 124 225 27
0.70116329 -0.41469181 0.087725252 124 225 27
0.69268596 -0.38025832 0.088039272 124 225 27
0.70083028 -0.39869916 0.085584082 124 225 27
0.69385839 -0.36503336 0.088576756 124 225 27
0.72198308 -0.36577824 0.086064145 124 225 27
0.72600859 -0.36932772 0.076248631 124 225 27
0.69258946 -0.33467937 0.085742496 124 225 27
0.71760541 -0.32768023 0.07569167 124 225 27
0.77011794 -0.32588446 0.08842659 124 225 27
0.69389093 -0.31559613 0.083500706 255 0 0
0.71475571 -0.30376446 0.078760713 124 225 27
0.76809257 -0.31472296 0.088568762 124 225 27
0.79211092 -0.30267787 0.092537344 124 225 27
0.69183481 -0.29593235 0.083190173 124 225 27
0.75969625 -0.28710455 0.089280888 124 225 27
0.78951699 -0.28596187 0.089458197 124 225 27
0.76349694 -0.25700721 0.088338777 124 225 27
0.78478193 -0.26011115 0.089705974 124 225 27
0.75276726 -0.23360877 0.078471087 124 225 27
0.7843889 -0.23674136 0.086068153 124 225 27
0.7454893 -0.21538433 0.096398398 124 225 27
0.76093996 -0.20617944 0.089857362 124 225 27
0.77853441 -0.2075792 0.086128928 124 225 27
0.74209416 -0.18247999 0.087489866 124 225 27
0.75848591 -0.18310234 0.088390343 124 225 27
0.7777583 -0.18979293 0.087749347 124 225 27
0.74414772 -0.16650763 0.092193119 124 225 27
0.75925684 -0.16440398 0.088978618 124 225 27
0.73720694 -0.13886398 0.089214429 124 225 27
0.76082867 -0.13763246 0.089243494 124 225 27
0.74164009 -0.11402062 0.089763932 124 225 27
0.76473016 -0.10814329 0.08051908 124 225 27
0.73595208 -0.090468988 0.091690466 124 225 27
0.75900549 -0.083292425 0.085662477 124 225 27
0.73759103 -0.056068584 0.093262538 124 225 27
0.75386846 -0.070754945 0.089892432 124 225 27
0.73612225 -0.039519262 0.084395856 124 225 27
0.75305337 -0.033424404 0.084302634 124 225 27
0.72486955 -0.012140808 0.087010264 124 225 27
0.74049586 -0.017234679 0.088314831 124 225 27
0.756028 -0.0091304481 0.083993733 124 225 27
0.73661309 0.015712494 0.087227844 124 225 27
0.75177342 0.022730976 0.097267218 124 225 27
0.71827221 0.036535867 0.095243983 124 225 27
0.74085176 0.04151158 0.081783637 124 225 27
0.75098395 0.031237572 0.083733723 124 225 27
0.72087312 0.063339457 0.075751878 124 225 27
0.73812908 0.0646981 0.084670305 124 225 27
0.71728134 0.088855565 0.079870284 124 225 27
0.73433363 0.08645802 0.089468278 124 225 27
0.71083981 0.11337811 0.08932282 124 225 27
0.73121911 0.1185661 0.087348841 124 225 27
0.72064751 0.13698159 0.089080438 124 225 27
0.73306441 0.12912729 0.081262253 124 225 27
0.71248847 0.16422419 0.083544061 124 225 27
0.72805518 0.15957527 0.080484882 124 225 27
0.71882284 0.18606375 0.088630691 124 225 27
0.7260201 0.18346991 0.079083085 124 225 27
0.6937331 0.2115601 0.094863512 124 225 27
0.71926957 0.2076239 0.087496452 124 225 27
0.67312789 0.23077278 0.093628295 124 225 27
0.69259584 0.24619019 0.090558462 124 225 27
0.71354747 0.23530832 0.088059261 124 225 27
0.69419342 0.26551998 0.085104324 124 225 27
0.70637065 0.26591352 0.086409569 124 225 27
1.1721307 0.27244586 0.090341657 255 0 0
0.69552338 0.2933991 0.085960552 124 225 27
0.70415884 0.2850008 0.08328481 124 225 27
0.68695074 0.31575394 0.084968217 124 225 27
0.67394578 0.34324801 0.089517161 124 225 27
0.68685359 0.3400932 0.083414383 124 225 27
0.70306069 0.32603139 0.075463533 124 225 27
0.68683445 0.36005661 0.086202368 124 225 27
0.67364633 0.38246626 0.095371209 124 225 27
0.68621832 0.38570201 0.087467484 124 225 27
0.70239627 0.38251895 0.075867236 124 225 27
0.68666631 0.40906402 0.087260596 255 0 0
0.73702168 0.41838461 0.081531197 124 225 27
0.68377173 0.43048307 0.08853323 124 225 27
0.73508066 0.43996048 0.079940647 124 225 27
0.72388446 0.45944843 0.094412044 124 225 27
0.73471302 0.46294817 0.084651448 124 225 27
0.77340651 0.46574676 0.088168472 124 225 27
0.72101831 0.48057511 0.085591227 124 225 27
0.72940695 0.49172187 0.08688876 124 225 27
0.77114618 0.48302478 0.088222861 124 225 27
0.7190609 0.51853573 0.091162741 124 225 27
0.73108739 0.50880569 0.081107318 124 225 27
0.76603913 0.51181877 0.082697436 124 225 27
0.71349472 0.53485197 0.086926416 124 225 27
0.73305184 0.52880567 0.084314764 124 225 27
0.71241981 0.56100702 0.088352375 124 225 27
0.72914171 0.5645088 0.086495392 124 225 27
0.75558811 0.56582069 0.093942419 124 225 27
0.69812018 0.59555441 0.090644091 124 225 27
0.71173328 0.59052974 0.083668597 124 225 27
0.7269997 0.57733536 0.091056578 124 225 27
0.75258529 0.5809691 0.088006958 124 225 27
0.69599551 0.61245215 0.088923804 124 225 27
0.7122122 0.61365789 0.086479127 124 225 27
0.74970669 0.60512465 0.077340662 124 225 27
0.6961565 0.64248973 0.088407472 124 225 27
0.70962441 0.63736278 0.082891561 124 225 27
0.74650872 0.63283896 0.082367405 124 225 27
0.69053936 0.66238952 0.088214196 124 225 27
0.7084868 0.65950215 0.087582812 124 225 27
0.74226964 0.66118169 0.091175422 124 225 27
0.69529188 0.68785077 0.089607947 124 225 27
0.70662385 0.68266273 0.080217414 124 225 27
0.73908728 0.67595845 0.081177786 124 225 27
0.68529862 0.71269363 0.090028599 124 225 27
0.70183188 0.7143774 0.078692243 124 225 27
0.73267525 0.7180891 0.088392645 124 225 27
0.66647941 0.74611944 0.097204372 124 225 27
0.68319887 0.73364204 0.0860442 124 225 27
0.71510148 0.73705238 0.083287425 124 225 27
0.72593671 0.74201471 0.09091638 124 225 27
0.67023647 0.75469851 0.091449969 124 225 27
0.68695724 0.75663096 0.087406427 124 225 27
0.7197144 0.76653624 0.099542841 124 225 27
0.66429996 0.78684366 0.090845488 124 225 27
0.68350953 0.79063523 0.083795071 255 0 0
0.71548003 0.78983313 0.096671194 124 225 27
0.66528177 0.80845398 0.085151292 124 225 27
0.68204761 0.80615544 0.087887257 124 225 27
0.71908939 0.8128168 0.083714947 124 225 27
0.66148257 0.83646429 0.086956315 124 225 27
0.68012655 0.83948028 0.088115685 124 225 27
0.71260053 0.83394474 0.093812458 124 225 27
0.64792711 0.85888314 0.091044486 124 225 27
0.66782486 0.86272049 0.091605775 124 225 27
0.7127223 0.87331963 0.083591029 124 225 27
0.63965166 0.89108908 0.096151128 124 225 27
0.66299051 0.88397497 0.084025823 124 225 27
0.6776458 0.89429075 0.078710094 124 225 27
